ply
format ascii 1.0
comment Created by CloudCompare v2.10.1 (Zephyrus)
comment Created 08/03/20 17:09
obj_info Generated by CloudCompare!
element vertex 1798
property float x
property float y
property float z
end_header
-7.49585 1.01473 0.115674 
-7.48268 1.01295 0.082481 
-7.47362 1.01172 0.049429 
-7.47822 1.01234 0.016487 
-7.48217 1.01288 -0.016495 
-10.3183 1.39681 -0.341157 
-9.11854 1.2344 -0.341671 
-8.16958 1.10594 -0.342108 
-7.40007 1.00177 -0.342481 
-7.8548 1.13062 1.32868 
-7.72207 1.11152 1.2726 
-7.67918 1.10534 1.23208 
-7.65799 1.10229 1.19529 
-7.63899 1.09956 1.159 
-7.62159 1.09705 1.12308 
-7.60616 1.09483 1.08758 
-7.58929 1.0924 1.052 
-7.57175 1.08988 1.01644 
-7.55519 1.0875 0.981156 
-7.53998 1.08531 0.946162 
-7.52607 1.08331 0.911443 
-7.51416 1.08159 0.877059 
-7.50261 1.07993 0.842806 
-7.49257 1.07848 0.808799 
-7.48421 1.07728 0.77504 
-7.47916 1.07655 0.741668 
-7.4778 1.07636 0.708675 
-7.47499 1.07595 0.67555 
-7.4718 1.07549 0.642403 
-7.46817 1.07497 0.609238 
-7.4647 1.07447 0.576104 
-7.45974 1.07376 0.542882 
-7.45066 1.07245 0.509411 
-7.44208 1.07121 0.476042 
-7.43812 1.07064 0.443015 
-7.437 1.07048 0.410172 
-7.43862 1.07072 0.377469 
-7.44159 1.07114 0.344807 
-7.44578 1.07175 0.312164 
-7.45048 1.07242 0.279497 
-7.45534 1.07312 0.246788 
-7.4607 1.0739 0.214047 
-7.4721 1.07554 0.1814 
-7.48929 1.07801 0.148764 
-7.49483 1.07881 0.115794 
-7.48161 1.0769 0.082566 
-7.47402 1.07581 0.04949 
-7.47846 1.07645 0.016507 
-7.48226 1.077 -0.016515 
-10.3062 1.48347 -0.341157 
-9.10763 1.31095 -0.341663 
-8.15969 1.17451 -0.342095 
-7.39111 1.06388 -0.342468 
-7.75117 1.18199 1.31277 
-7.70188 1.17447 1.27085 
-7.67993 1.17112 1.23373 
-7.65888 1.16791 1.19691 
-7.63962 1.16498 1.16053 
-7.62223 1.16233 1.12457 
-7.60679 1.15997 1.08902 
-7.58939 1.15732 1.05331 
-7.57205 1.15467 1.01775 
-7.55604 1.15223 0.982484 
-7.54071 1.14989 0.947428 
-7.52649 1.14772 0.912624 
-7.51443 1.14588 0.878179 
-7.50291 1.14413 0.843884 
-7.49269 1.14257 0.809816 
-7.48397 1.14124 0.775977 
-7.47907 1.14049 0.742579 
-7.47787 1.14031 0.709561 
-7.47487 1.13985 0.676377 
-7.47139 1.13932 0.643166 
-7.46777 1.13877 0.609961 
-7.46429 1.13824 0.576787 
-7.45941 1.1375 0.543531 
-7.45047 1.13613 0.51003 
-7.44186 1.13482 0.476619 
-7.43778 1.1342 0.443545 
-7.43675 1.13404 0.410667 
-7.4385 1.13431 0.377931 
-7.44161 1.13478 0.345236 
-7.44596 1.13544 0.312559 
-7.45066 1.13616 0.279851 
-7.45547 1.13689 0.247099 
-7.46095 1.13773 0.214319 
-7.47252 1.1395 0.181635 
-7.48973 1.14212 0.148958 
-7.49385 1.14275 0.115923 
-7.48057 1.14072 0.082657 
-7.47435 1.13977 0.049553 
-7.47864 1.14043 0.016527 
-10.2921 1.56946 -0.341114 
-9.09539 1.38697 -0.341627 
-8.14886 1.24263 -0.342065 
-7.38137 1.12559 -0.342441 
-7.80221 1.25637 1.35717 
-7.72704 1.24426 1.3104 
-7.70333 1.24045 1.27275 
-7.68089 1.23683 1.2355 
-7.65976 1.23343 1.19862 
-7.64025 1.23029 1.16214 
-7.62291 1.2275 1.12614 
-7.60746 1.22501 1.09054 
-7.58959 1.22213 1.05472 
-7.57254 1.21939 1.01914 
-7.55695 1.21688 0.983886 
-7.5416 1.2144 0.948778 
-7.52718 1.21208 0.913901 
-7.51474 1.21008 0.879363 
-7.50324 1.20823 0.845025 
-7.49284 1.20655 0.810891 
-7.48378 1.20509 0.776971 
-7.47902 1.20433 0.743544 
-7.47796 1.20416 0.710497 
-7.47476 1.20364 0.677251 
-7.471 1.20303 0.643972 
-7.46738 1.20245 0.610726 
-7.4639 1.20189 0.577511 
-7.4591 1.20112 0.544219 
-7.45029 1.1997 0.510684 
-7.44165 1.19831 0.477228 
-7.43744 1.19763 0.444104 
-7.43649 1.19748 0.411189 
-7.43836 1.19778 0.378418 
-7.4416 1.1983 0.345687 
-7.44607 1.19902 0.312972 
-7.45069 1.19977 0.280217 
-7.45546 1.20053 0.247422 
-7.46114 1.20145 0.214605 
-7.47295 1.20335 0.181883 
-7.49016 1.20612 0.149161 
-7.49293 1.20657 0.11606 
-7.47964 1.20443 0.082755 
-7.47461 1.20362 0.04962 
-7.47874 1.20428 0.016549 
-10.2818 1.65565 -0.341218 
-9.08611 1.46311 -0.341725 
-8.14041 1.31083 -0.342156 
-7.37357 1.18735 -0.342526 
-7.84498 1.33011 1.40073 
-7.76368 1.31633 1.35233 
-7.72849 1.31036 1.31244 
-7.70489 1.30636 1.27476 
-7.68192 1.30247 1.23736 
-7.66074 1.29888 1.20041 
-7.64099 1.29553 1.16385 
-7.62365 1.29259 1.1278 
-7.60773 1.28989 1.09208 
-7.58999 1.28688 1.05622 
-7.5735 1.28409 1.02067 
-7.5579 1.28144 0.985359 
-7.54252 1.27883 0.950197 
-7.52786 1.27635 0.915238 
-7.51497 1.27416 0.880597 
-7.50357 1.27223 0.846222 
-7.49321 1.27047 0.812043 
-7.48392 1.2689 0.778052 
-7.47898 1.26806 0.744561 
-7.47787 1.26787 0.711463 
-7.47438 1.26728 0.678146 
-7.47061 1.26664 0.644823 
-7.46699 1.26603 0.611532 
-7.46351 1.26544 0.578273 
-7.45881 1.26464 0.544944 
-7.45017 1.26317 0.511376 
-7.44148 1.2617 0.477872 
-7.43713 1.26096 0.444695 
-7.43626 1.26082 0.41174 
-7.43831 1.26116 0.378935 
-7.44161 1.26172 0.346161 
-7.44608 1.26248 0.313402 
-7.45071 1.26327 0.280602 
-7.45548 1.26407 0.247762 
-7.46135 1.26507 0.214905 
-7.47337 1.26711 0.182143 
-7.49052 1.27002 0.149373 
-7.492 1.27027 0.116205 
-7.47876 1.26802 0.082858 
-7.47488 1.26736 0.04969 
-7.47885 1.26804 0.016572 
-10.2655 1.7405 -0.341143 
-9.07188 1.53813 -0.341658 
-8.1278 1.37807 -0.342095 
-7.36228 1.24827 -0.342471 
-8.30196 1.47824 1.5207 
-7.84333 1.39658 1.40244 
-7.75475 1.38081 1.35271 
-7.73017 1.37643 1.31461 
-7.70655 1.37223 1.27686 
-7.68342 1.36811 1.23938 
-7.66174 1.36425 1.20229 
-7.64175 1.36069 1.16564 
-7.62443 1.3576 1.12953 
-7.60798 1.35467 1.09368 
-7.59042 1.35155 1.0578 
-7.57449 1.34871 1.02227 
-7.55886 1.34593 0.986901 
-7.54347 1.34319 0.951681 
-7.52856 1.34053 0.916637 
-7.51522 1.33816 0.881891 
-7.50394 1.33615 0.847479 
-7.49362 1.33431 0.813254 
-7.48412 1.33262 0.77919 
-7.47894 1.3317 0.745627 
-7.47777 1.33149 0.712476 
-7.47401 1.33082 0.679086 
-7.47024 1.33015 0.645716 
-7.46661 1.3295 0.61238 
-7.46313 1.32888 0.579075 
-7.45858 1.32807 0.54571 
-7.45011 1.32656 0.512107 
-7.44132 1.325 0.478548 
-7.43693 1.32422 0.445322 
-7.43617 1.32408 0.412327 
-7.43827 1.32446 0.379477 
-7.4416 1.32505 0.346658 
-7.44609 1.32585 0.313852 
-7.45072 1.32667 0.281006 
-7.4555 1.32752 0.248118 
-7.46158 1.32861 0.215221 
-7.47381 1.33078 0.182415 
-7.49089 1.33382 0.149595 
-7.49127 1.33389 0.11636 
-7.47809 1.33154 0.08297 
-7.47516 1.33102 0.049763 
-7.47897 1.3317 0.016596 
-10.2529 1.82562 -0.341214 
-9.06056 1.61332 -0.341722 
-8.11753 1.4454 -0.342153 
-7.35286 1.30925 -0.342525 
-7.81993 1.45887 1.40036 
-7.75632 1.44701 1.35502 
-7.73204 1.44248 1.31691 
-7.70828 1.43805 1.27907 
-7.68503 1.43371 1.2415 
-7.66279 1.42956 1.20426 
-7.64256 1.42578 1.16751 
-7.62523 1.42255 1.13135 
-7.60841 1.41941 1.09538 
-7.59134 1.41623 1.05951 
-7.5755 1.41327 1.02394 
-7.55985 1.41035 0.988511 
-7.54444 1.40748 0.953232 
-7.52927 1.40465 0.918099 
-7.51548 1.40208 0.883246 
-7.50434 1.4 0.848796 
-7.49406 1.39808 0.814522 
-7.48435 1.39627 0.780384 
-7.47885 1.39524 0.746737 
-7.47758 1.395 0.713526 
-7.47365 1.39427 0.680073 
-7.46988 1.39357 0.646654 
-7.46625 1.39289 0.613268 
-7.46276 1.39224 0.579915 
-7.45835 1.39142 0.546513 
-7.45008 1.38988 0.512874 
-7.44129 1.38823 0.479264 
-7.43687 1.38741 0.445986 
-7.4361 1.38727 0.412942 
-7.43822 1.38766 0.380044 
-7.44158 1.38829 0.347178 
-7.44608 1.38913 0.314323 
-7.45073 1.38999 0.281428 
-7.45552 1.39089 0.248491 
-7.46179 1.39206 0.21555 
-7.47422 1.39438 0.182699 
-7.49125 1.39756 0.149827 
-7.49056 1.39743 0.116524 
-7.47743 1.39498 0.083087 
-7.47544 1.39461 0.04984 
-7.4791 1.39529 0.016621 
-10.2344 1.90931 -0.341111 
-9.04444 1.68732 -0.341626 
-8.10322 1.51172 -0.342063 
-7.34002 1.36934 -0.34244 
-7.79732 1.52085 1.39849 
-7.75833 1.51324 1.35749 
-7.73411 1.50852 1.31932 
-7.71012 1.50384 1.28137 
-7.6867 1.49927 1.24371 
-7.66387 1.49482 1.20632 
-7.64341 1.49083 1.16947 
-7.62606 1.48744 1.13324 
-7.60891 1.4841 1.09717 
-7.59241 1.48088 1.06132 
-7.57655 1.47778 1.02568 
-7.56088 1.47473 0.990192 
-7.54545 1.47172 0.95485 
-7.53021 1.46875 0.91965 
-7.51613 1.466 0.884704 
-7.50467 1.46377 0.850162 
-7.49451 1.46178 0.815845 
-7.48465 1.45986 0.781635 
-7.47875 1.45871 0.747895 
-7.47726 1.45842 0.714612 
-7.47335 1.45766 0.681109 
-7.46959 1.45692 0.647641 
-7.46598 1.45622 0.614206 
-7.46251 1.45554 0.580802 
-7.45831 1.45472 0.547364 
-7.45042 1.45318 0.513699 
-7.44158 1.45146 0.480033 
-7.43688 1.45054 0.446685 
-7.43607 1.45038 0.413586 
-7.4382 1.4508 0.380637 
-7.44159 1.45146 0.347721 
-7.4461 1.45234 0.314816 
-7.45076 1.45325 0.281869 
-7.45556 1.45419 0.248881 
-7.46203 1.45545 0.215894 
-7.47461 1.4579 0.182994 
-7.49159 1.46122 0.150068 
-7.48991 1.46089 0.116696 
-7.47672 1.45831 0.083209 
-7.47565 1.4581 0.049919 
-7.47926 1.45881 0.016648 
-10.2198 1.99335 -0.341157 
-9.03132 1.76154 -0.341664 
-8.09131 1.57819 -0.342095 
-7.32912 1.42953 -0.342466 
-7.78705 1.58488 1.39892 
-7.76042 1.57946 1.36006 
-7.73621 1.57453 1.32182 
-7.71215 1.56964 1.28379 
-7.6885 1.56482 1.24602 
-7.66553 1.56015 1.20854 
-7.64457 1.55588 1.17155 
-7.627 1.55231 1.13522 
-7.60966 1.54878 1.09906 
-7.59353 1.5455 1.0632 
-7.57764 1.54226 1.0275 
-7.56196 1.53907 0.991944 
-7.5465 1.53592 0.956537 
-7.53125 1.53282 0.921273 
-7.51689 1.5299 0.886232 
-7.50479 1.52743 0.851558 
-7.4944 1.52532 0.817161 
-7.48454 1.52331 0.782896 
-7.47877 1.52214 0.749112 
-7.47746 1.52187 0.715794 
-7.47356 1.52108 0.682236 
-7.4698 1.52031 0.648712 
-7.46624 1.51959 0.615226 
-7.46289 1.51891 0.581776 
-7.45881 1.51808 0.548292 
-7.4509 1.51647 0.514568 
-7.44181 1.51462 0.480829 
-7.4369 1.51362 0.447413 
-7.43605 1.51344 0.414257 
-7.4382 1.51388 0.381256 
-7.44159 1.51457 0.348287 
-7.44611 1.51549 0.315328 
-7.45078 1.51644 0.282329 
-7.4556 1.51742 0.249287 
-7.46224 1.51877 0.216251 
-7.47495 1.52136 0.1833 
-7.49189 1.52481 0.150318 
-7.48927 1.52427 0.116876 
-7.47596 1.52157 0.083336 
-7.47578 1.52153 0.050001 
-7.47941 1.52227 0.016675 
-10.2028 2.07656 -0.341144 
-9.01652 1.83511 -0.341659 
-8.0782 1.64414 -0.342096 
-7.31735 1.48928 -0.342472 
-7.78902 1.65128 1.40164 
-7.76253 1.64566 1.36273 
-7.73831 1.64053 1.32441 
-7.71429 1.63544 1.28632 
-7.69052 1.6304 1.24846 
-7.66724 1.62546 1.21086 
-7.6457 1.6209 1.1737 
-7.62789 1.61712 1.13727 
-7.61082 1.6135 1.10109 
-7.59467 1.61008 1.06516 
-7.57876 1.6067 1.02939 
-7.56305 1.60337 0.993763 
-7.54757 1.60009 0.958289 
-7.5323 1.59685 0.922957 
-7.51766 1.59375 0.88782 
-7.50509 1.59109 0.85303 
-7.49455 1.58885 0.818558 
-7.4775 1.58524 0.78348 
-7.47227 1.58413 0.749726 
-7.48436 1.58669 0.717664 
-7.47386 1.58447 0.683416 
-7.47022 1.58369 0.649845 
-7.46673 1.58295 0.616306 
-7.46338 1.58224 0.582797 
-7.45936 1.58139 0.549258 
-7.45145 1.57972 0.515475 
-7.44218 1.57775 0.481665 
-7.43703 1.57666 0.448176 
-7.43602 1.57644 0.414956 
-7.4382 1.57691 0.3819 
-7.44161 1.57763 0.348876 
-7.44615 1.57859 0.315862 
-7.45083 1.57958 0.282807 
-7.45566 1.58061 0.24971 
-7.4625 1.58206 0.216624 
-7.47532 1.58478 0.183619 
-7.49219 1.58835 0.150578 
-7.48845 1.58756 0.11706 
-7.47507 1.58472 0.083467 
-7.47595 1.58491 0.050087 
-7.47957 1.58568 0.016704 
-10.1852 2.15928 -0.341131 
-9.00102 1.90823 -0.341647 
-8.06434 1.70965 -0.342086 
-7.30482 1.54863 -0.342463 
-7.79101 1.71767 1.40445 
-7.76468 1.71186 1.36549 
-7.74041 1.70651 1.32709 
-7.71634 1.70121 1.28892 
-7.69261 1.69597 1.25098 
-7.66912 1.6908 1.21327 
-7.64683 1.68588 1.17593 
-7.62852 1.68184 1.13936 
-7.61201 1.67821 1.10319 
-7.59584 1.67464 1.06719 
-7.57991 1.67113 1.03135 
-7.56417 1.66766 0.995651 
-7.54867 1.66424 0.960106 
-7.53337 1.66087 0.924705 
-7.51846 1.65758 0.889469 
-7.50517 1.65465 0.854532 
-7.49437 1.65227 0.81997 
-7.47787 1.64863 0.784891 
-7.47121 1.64716 0.750932 
-7.48199 1.64954 0.718693 
-7.47414 1.64781 0.684638 
-7.47064 1.64704 0.651019 
-7.46722 1.64628 0.617425 
-7.46386 1.64554 0.583855 
-7.4599 1.64467 0.55026 
-7.45199 1.64293 0.516415 
-7.44255 1.64084 0.482532 
-7.43715 1.63965 0.448968 
-7.436 1.6394 0.415681 
-7.43821 1.63989 0.38257 
-7.44165 1.64065 0.349488 
-7.44618 1.64165 0.316417 
-7.45087 1.64268 0.283304 
-7.4557 1.64374 0.250149 
-7.4627 1.64529 0.217009 
-7.47566 1.64814 0.183949 
-7.49251 1.65186 0.150848 
-7.48793 1.65085 0.117257 
-7.47444 1.64787 0.083606 
-7.47611 1.64824 0.050175 
-7.47974 1.64904 0.016733 
-10.1673 2.24157 -0.341127 
-8.98503 1.98091 -0.341638 
-8.04991 1.77475 -0.342071 
-7.29166 1.60758 -0.342445 
-7.79313 1.78408 1.40738 
-7.76685 1.77807 1.36835 
-7.74254 1.7725 1.32986 
-7.71844 1.76699 1.2916 
-7.69468 1.76154 1.25358 
-7.67118 1.75617 1.2158 
-7.64861 1.751 1.17833 
-7.62964 1.74666 1.14159 
-7.61325 1.7429 1.10536 
-7.59704 1.73919 1.06929 
-7.58108 1.73554 1.03337 
-7.56525 1.73192 0.997597 
-7.54957 1.72833 0.96196 
-7.53381 1.72472 0.926435 
-7.51789 1.72107 0.891012 
-7.50423 1.71795 0.855973 
-7.49404 1.71562 0.82142 
-7.48495 1.71353 0.787058 
-7.47981 1.71236 0.753159 
-7.47789 1.71192 0.719601 
-7.47425 1.71108 0.685888 
-7.47075 1.71028 0.652208 
-7.46739 1.70951 0.618558 
-7.46418 1.70878 0.584938 
-7.46036 1.7079 0.55129 
-7.45249 1.7061 0.517385 
-7.44293 1.70391 0.483431 
-7.43732 1.70263 0.449792 
-7.43603 1.70233 0.416436 
-7.43823 1.70284 0.383264 
-7.44168 1.70363 0.350123 
-7.44623 1.70467 0.316992 
-7.45093 1.70574 0.28382 
-7.45579 1.70686 0.250605 
-7.46291 1.70849 0.217408 
-7.47598 1.71148 0.18429 
-7.49285 1.71534 0.151128 
-7.48736 1.71408 0.117461 
-7.47377 1.71097 0.08375 
-7.4763 1.71155 0.050268 
-7.47994 1.71239 0.016764 
-10.1509 2.32385 -0.341193 
-8.97057 2.05364 -0.341706 
-8.03699 1.83991 -0.342141 
-7.79536 1.85053 1.41042 
-7.76907 1.84429 1.3713 
-7.74475 1.83852 1.33273 
-7.72078 1.83283 1.29441 
-7.69714 1.82722 1.25633 
-7.67376 1.82167 1.21848 
-7.65089 1.81624 1.18089 
-7.63009 1.8113 1.14379 
-7.6134 1.80734 1.10746 
-7.59643 1.80331 1.07121 
-7.57949 1.79929 1.03509 
-7.56295 1.79536 0.999161 
-7.54685 1.79154 0.963414 
-7.53095 1.78776 0.927816 
-7.51609 1.78424 0.892467 
-7.50414 1.7814 0.857566 
-7.4943 1.77906 0.822986 
-7.48554 1.77699 0.788593 
-7.48063 1.77582 0.754651 
-7.47829 1.77526 0.720986 
-7.47466 1.7744 0.68721 
-7.47118 1.77357 0.653466 
-7.46784 1.77278 0.619753 
-7.46464 1.77202 0.586069 
-7.46076 1.7711 0.552352 
-7.45267 1.76918 0.518366 
-7.44301 1.76689 0.484341 
-7.43749 1.76558 0.450644 
-7.43618 1.76527 0.417224 
-7.43835 1.76578 0.383987 
-7.44181 1.76661 0.350785 
-7.44638 1.76769 0.317592 
-7.4511 1.76881 0.284357 
-7.45598 1.76997 0.251081 
-7.46316 1.77167 0.217823 
-7.47631 1.77479 0.184643 
-7.49321 1.77881 0.151418 
-7.4868 1.77728 0.117672 
-7.47309 1.77403 0.083899 
-7.47647 1.77483 0.050363 
-7.48012 1.7757 0.016796 
-10.1301 2.40477 -0.341131 
-8.95225 2.12517 -0.341646 
-8.02063 1.90401 -0.342084 
-7.7985 1.91722 1.41371 
-7.77333 1.91104 1.37471 
-7.74856 1.90495 1.33597 
-7.72399 1.89891 1.29745 
-7.69976 1.89295 1.25919 
-7.67581 1.88706 1.22116 
-7.65246 1.88132 1.18342 
-7.6315 1.87617 1.14622 
-7.61433 1.87195 1.10973 
-7.59736 1.86777 1.07341 
-7.58065 1.86366 1.03725 
-7.56413 1.85961 1.00125 
-7.54787 1.85561 0.965406 
-7.5319 1.85168 0.929727 
-7.51701 1.84802 0.894301 
-7.50484 1.84503 0.859303 
-7.49498 1.8426 0.824652 
-7.48648 1.84052 0.790216 
-7.48159 1.83931 0.756207 
-7.4787 1.8386 0.722419 
-7.47516 1.83773 0.688585 
-7.47169 1.83688 0.654774 
-7.46835 1.83606 0.620993 
-7.46516 1.83527 0.587242 
-7.46129 1.83432 0.553459 
-7.453 1.83228 0.519391 
-7.44301 1.82983 0.485277 
-7.43753 1.82848 0.451517 
-7.43634 1.82819 0.418039 
-7.43851 1.82872 0.384738 
-7.44199 1.82958 0.351471 
-7.44657 1.8307 0.318213 
-7.45131 1.83187 0.284915 
-7.45622 1.83308 0.251574 
-7.46344 1.83485 0.218252 
-7.47663 1.83809 0.185008 
-7.49357 1.84226 0.151718 
-7.48722 1.8407 0.117906 
-7.47342 1.8373 0.084065 
-7.47666 1.8381 0.050461 
-7.48033 1.839 0.016829 
-10.1118 2.48593 -0.341173 
-8.93606 2.19689 -0.341687 
-8.00611 1.96826 -0.342124 
-7.80008 1.98356 1.41681 
-7.77341 1.97678 1.37746 
-7.74885 1.97053 1.33868 
-7.72449 1.96434 1.30012 
-7.70048 1.95823 1.26181 
-7.67673 1.95219 1.22374 
-7.65367 1.94633 1.18596 
-7.63324 1.94113 1.14876 
-7.616 1.93675 1.11219 
-7.59897 1.93242 1.07577 
-7.58219 1.92815 1.03953 
-7.56561 1.92394 1.00344 
-7.54929 1.91978 0.96751 
-7.53324 1.9157 0.931744 
-7.51812 1.91186 0.896214 
-7.5056 1.90867 0.861102 
-7.49569 1.90615 0.826372 
-7.48745 1.90406 0.791892 
-7.48273 1.90286 0.757828 
-7.47932 1.90199 0.723918 
-7.47564 1.90105 0.69 
-7.47219 1.90018 0.656123 
-7.46885 1.89933 0.622272 
-7.46566 1.89852 0.588452 
-7.46181 1.89754 0.5546 
-7.45337 1.89539 0.520451 
-7.44302 1.89276 0.486244 
-7.4375 1.89136 0.452415 
-7.43638 1.89107 0.418874 
-7.43853 1.89162 0.385505 
-7.44213 1.89253 0.352178 
-7.44675 1.89371 0.318855 
-7.45153 1.89492 0.285491 
-7.45646 1.89618 0.252083 
-7.46373 1.89803 0.218695 
-7.47698 1.9014 0.185385 
-7.49399 1.90572 0.152029 
-7.48769 1.90412 0.118148 
-7.47376 1.90058 0.084236 
-7.47687 1.90137 0.050563 
-7.48053 1.9023 0.016863 
-10.0894 2.56573 -0.341096 
-8.91625 2.2674 -0.341609 
-7.98835 2.03144 -0.342045 
-7.80262 2.05017 1.42018 
-7.77577 2.04312 1.3807 
-7.75109 2.03663 1.34181 
-7.72668 2.03022 1.30316 
-7.70261 2.0239 1.26475 
-7.67882 2.01764 1.22658 
-7.65565 2.01156 1.1887 
-7.63485 2.00609 1.15136 
-7.61744 2.00152 1.11468 
-7.60038 1.99704 1.07818 
-7.58357 1.99262 1.04185 
-7.56697 1.98826 1.00568 
-7.55061 1.98396 0.969665 
-7.53454 1.97974 0.933816 
-7.51948 1.97578 0.898215 
-7.50681 1.97245 0.863007 
-7.4964 1.96971 0.828145 
-7.4884 1.96761 0.793617 
-7.48413 1.96649 0.759525 
-7.4803 1.96548 0.725498 
-7.47597 1.96434 0.691446 
-7.47267 1.96348 0.65751 
-7.46937 1.96261 0.623591 
-7.46619 1.96177 0.5897 
-7.46233 1.96076 0.555776 
-7.45387 1.95854 0.521553 
-7.44327 1.95575 0.487258 
-7.43755 1.95425 0.453345 
-7.43646 1.95396 0.419738 
-7.43864 1.95454 0.386301 
-7.44234 1.95551 0.35291 
-7.44698 1.95673 0.319519 
-7.45178 1.95799 0.286086 
-7.45673 1.95929 0.252609 
-7.46403 1.96121 0.219152 
-7.47734 1.9647 0.185774 
-7.49438 1.96918 0.152348 
-7.48811 1.96754 0.118397 
-7.47404 1.96384 0.084412 
-7.47703 1.96462 0.050668 
-7.48076 1.96561 0.016898 
-10.0695 2.64581 -0.341122 
-8.89855 2.33814 -0.34163 
-7.97239 2.09478 -0.342062 
-7.80526 2.11686 1.42366 
-7.77821 2.10953 1.38405 
-7.75339 2.1028 1.34504 
-7.72891 2.09616 1.30628 
-7.7048 2.08962 1.26778 
-7.68095 2.08315 1.22951 
-7.65767 2.07684 1.19152 
-7.63651 2.0711 1.15404 
-7.61899 2.06635 1.11726 
-7.60183 2.06169 1.08066 
-7.58498 2.05713 1.04424 
-7.56835 2.05261 1.00798 
-7.55196 2.04817 0.971884 
-7.53587 2.0438 0.935951 
-7.52088 2.03974 0.900277 
-7.50808 2.03627 0.864973 
-7.49716 2.03331 0.829976 
-7.48938 2.0312 0.795396 
-7.48544 2.03013 0.76126 
-7.48114 2.02896 0.72711 
-7.47625 2.02764 0.692931 
-7.47306 2.02677 0.658931 
-7.46986 2.0259 0.624948 
-7.46669 2.02504 0.590984 
-7.46273 2.02397 0.556978 
-7.45414 2.02164 0.522673 
-7.44356 2.01877 0.488305 
-7.43784 2.01722 0.45432 
-7.4367 2.01691 0.420637 
-7.43885 2.01749 0.387127 
-7.44257 2.0185 0.353666 
-7.44724 2.01977 0.320204 
-7.45205 2.02107 0.2867 
-7.45702 2.02242 0.253152 
-7.46436 2.02441 0.219624 
-7.47772 2.02803 0.186176 
-7.49478 2.03266 0.152678 
-7.48857 2.03098 0.118654 
-7.47433 2.02711 0.084593 
-7.47717 2.02788 0.050776 
-7.48098 2.02892 0.016934 
-10.0468 2.7248 -0.341071 
-8.8788 2.40802 -0.341591 
-7.95492 2.15745 -0.342032 
-7.80799 2.18365 1.42725 
-7.78079 2.17604 1.38751 
-7.75586 2.16906 1.34838 
-7.73119 2.16217 1.3095 
-7.70703 2.15541 1.2709 
-7.68313 2.14872 1.23253 
-7.65972 2.14218 1.19443 
-7.63821 2.13616 1.1568 
-7.62062 2.13124 1.11992 
-7.6033 2.1264 1.08321 
-7.58642 2.12168 1.0467 
-7.56976 2.11702 1.01035 
-7.55334 2.11243 0.974168 
-7.53722 2.10792 0.938148 
-7.5223 2.10374 0.902399 
-7.50934 2.10012 0.866994 
-7.4979 2.09692 0.831857 
-7.49034 2.09481 0.797222 
-7.48661 2.09376 0.763029 
-7.48211 2.0925 0.72878 
-7.47697 2.09107 0.694499 
-7.47338 2.09007 0.660388 
-7.47029 2.0892 0.626339 
-7.46721 2.08834 0.592306 
-7.46319 2.08721 0.55822 
-7.45447 2.08477 0.523829 
-7.44393 2.08183 0.489388 
-7.43823 2.08023 0.455328 
-7.43702 2.0799 0.421567 
-7.43914 2.08049 0.387981 
-7.44282 2.08152 0.354444 
-7.44748 2.08282 0.320909 
-7.45229 2.08417 0.287331 
-7.45726 2.08556 0.253709 
-7.46462 2.08761 0.220108 
-7.47802 2.09136 0.186587 
-7.49514 2.09615 0.153016 
-7.48901 2.09443 0.118918 
-7.47459 2.0904 0.08478 
-7.47731 2.09116 0.050887 
-7.48122 2.09226 0.016971 
-8.28735 2.3177 -0.0188 
-9.10178 2.54548 -0.061942 
-9.14456 2.55744 -0.103721 
-10.0276 2.80441 -0.341158 
-8.86174 2.47834 -0.341673 
-7.93955 2.22044 -0.342112 
-7.81085 2.25053 1.43094 
-7.7833 2.24259 1.39104 
-7.75838 2.23541 1.35182 
-7.73364 2.22828 1.31283 
-7.70933 2.22128 1.27411 
-7.68538 2.21438 1.23563 
-7.66184 2.2076 1.19741 
-7.63996 2.20129 1.15964 
-7.62233 2.19621 1.12266 
-7.60492 2.1912 1.08585 
-7.58788 2.18629 1.04923 
-7.57118 2.18147 1.01279 
-7.55474 2.17674 0.976517 
-7.53864 2.1721 0.940414 
-7.52383 2.16783 0.904592 
-7.51062 2.16403 0.869072 
-7.49867 2.16058 0.833795 
-7.49128 2.15845 0.799096 
-7.4877 2.15742 0.764839 
-7.48329 2.15615 0.730517 
-7.47799 2.15462 0.69614 
-7.47367 2.15338 0.661883 
-7.47065 2.15251 0.627763 
-7.46768 2.15165 0.593661 
-7.4636 2.15048 0.559493 
-7.45479 2.14794 0.525017 
-7.4443 2.14492 0.490501 
-7.43861 2.14328 0.456365 
-7.43736 2.14292 0.422524 
-7.43944 2.14352 0.38886 
-7.44308 2.14456 0.355245 
-7.44775 2.14591 0.321634 
-7.45257 2.1473 0.287981 
-7.45755 2.14873 0.254283 
-7.46494 2.15086 0.220607 
-7.47841 2.15474 0.187012 
-7.4956 2.1597 0.153366 
-7.48947 2.15793 0.11919 
-7.47485 2.15372 0.084971 
-7.47744 2.15446 0.051001 
-7.48144 2.15562 0.01701 
-8.2788 2.38536 -0.018822 
-9.07438 2.61459 -0.061893 
-9.07505 2.61478 -0.103162 
-9.07972 2.61613 -0.144498 
-9.10846 2.62441 -0.186367 
-10.7918 3.10944 -0.26987 
-10.0049 2.88269 -0.341141 
-8.84147 2.54748 -0.34165 
-7.92128 2.28235 -0.342084 
-7.8192 2.31913 1.43574 
-7.7859 2.30925 1.39469 
-7.76093 2.30184 1.35536 
-7.73616 2.2945 1.31625 
-7.7117 2.28724 1.27741 
-7.68766 2.28011 1.23882 
-7.66401 2.2731 1.20049 
-7.64176 2.2665 1.16256 
-7.6241 2.26126 1.12549 
-7.60665 2.25608 1.08858 
-7.5895 2.251 1.05185 
-7.5727 2.24602 1.01531 
-7.55622 2.24113 0.978937 
-7.54018 2.23637 0.942753 
-7.52551 2.23202 0.906858 
-7.51205 2.22803 0.871221 
-7.49966 2.22435 0.835808 
-7.49213 2.22212 0.801011 
-7.48866 2.22109 0.766682 
-7.48448 2.21985 0.732301 
-7.47901 2.21823 0.697824 
-7.47397 2.21673 0.663421 
-7.47097 2.21584 0.629223 
-7.46806 2.21498 0.595047 
-7.46346 2.21361 0.560759 
-7.45361 2.2107 0.526132 
-7.44361 2.20773 0.491575 
-7.43887 2.20632 0.457423 
-7.43769 2.20597 0.423507 
-7.43979 2.20659 0.389766 
-7.44335 2.20765 0.356069 
-7.44805 2.20904 0.322381 
-7.4529 2.21048 0.288651 
-7.45791 2.21197 0.254876 
-7.4653 2.21416 0.221121 
-7.47882 2.21817 0.187449 
-7.49619 2.22332 0.153728 
-7.48991 2.22146 0.119469 
-7.47499 2.21704 0.085167 
-7.47751 2.21778 0.051118 
-7.4816 2.21899 0.017049 
-9.07532 2.69168 -0.1034 
-9.07587 2.69184 -0.144766 
-9.07697 2.69217 -0.186146 
-9.08707 2.69517 -0.227758 
-9.89069 2.93352 -0.292961 
-9.98275 2.96082 -0.341163 
-8.82201 2.61655 -0.341677 
-7.90392 2.34425 -0.342113 
-7.83822 2.39116 1.4426 
-7.78852 2.376 1.39842 
-7.76349 2.36836 1.35897 
-7.73867 2.36079 1.31976 
-7.71419 2.35332 1.28081 
-7.69001 2.34595 1.2421 
-7.66629 2.33871 1.20365 
-7.64389 2.33188 1.1656 
-7.62588 2.32638 1.12838 
-7.60839 2.32105 1.09138 
-7.59115 2.31579 1.05454 
-7.5742 2.31062 1.01788 
-7.55768 2.30558 0.981417 
-7.54171 2.3007 0.945149 
-7.52719 2.29627 0.909183 
-7.5137 2.29216 0.873451 
-7.50099 2.28828 0.837912 
-7.49299 2.28584 0.802977 
-7.4896 2.28481 0.768572 
-7.48567 2.28361 0.734131 
-7.48047 2.28202 0.699593 
-7.47486 2.28031 0.665052 
-7.47125 2.27921 0.630718 
-7.46839 2.27834 0.596465 
-7.46272 2.27661 0.562015 
-7.45072 2.27295 0.527159 
-7.44043 2.26981 0.492515 
-7.43769 2.26897 0.45842 
-7.43802 2.26907 0.424517 
-7.44017 2.26973 0.390698 
-7.44363 2.27079 0.356915 
-7.44835 2.27222 0.323149 
-7.45323 2.27372 0.289339 
-7.45861 2.27535 0.255496 
-7.46657 2.27778 0.221677 
-7.48049 2.28203 0.187929 
-7.49567 2.28666 0.154077 
-7.48839 2.28444 0.119724 
-7.47502 2.28036 0.085366 
-7.47763 2.28116 0.051238 
-7.4818 2.28243 0.017089 
-9.07712 2.7691 -0.186585 
-9.0782 2.76943 -0.228068 
-9.09228 2.77373 -0.269942 
-9.21823 2.81215 -0.315773 
-8.80237 2.68529 -0.341714 
-7.88622 2.4058 -0.342146 
-7.85864 2.46401 1.44983 
-7.79125 2.44288 1.40226 
-7.76616 2.43501 1.3627 
-7.74128 2.42721 1.32337 
-7.71674 2.41951 1.2843 
-7.69248 2.41191 1.24547 
-7.66862 2.40443 1.20691 
-7.64608 2.39736 1.16873 
-7.62771 2.3916 1.13136 
-7.61018 2.3861 1.09425 
-7.59291 2.38069 1.05731 
-7.57586 2.37534 1.02055 
-7.55919 2.37012 0.983965 
-7.54327 2.36512 0.94761 
-7.52888 2.36061 0.911566 
-7.51534 2.35637 0.875734 
-7.50231 2.35228 0.840067 
-7.49386 2.34963 0.804994 
-7.49056 2.3486 0.770512 
-7.48682 2.34742 0.736003 
-7.48195 2.3459 0.701408 
-7.47589 2.344 0.666737 
-7.47156 2.34264 0.632256 
-7.46788 2.34149 0.597854 
-7.46088 2.33929 0.563223 
-7.44919 2.33563 0.528313 
-7.44011 2.33278 0.493673 
-7.43867 2.33233 0.459579 
-7.43975 2.33267 0.425633 
-7.44185 2.33332 0.391723 
-7.44622 2.3347 0.357895 
-7.45243 2.33664 0.3241 
-7.45854 2.33856 0.290239 
-7.46451 2.34043 0.256311 
-7.47226 2.34286 0.222377 
-7.47253 2.34294 0.188179 
-7.46922 2.34191 0.153901 
-7.47227 2.34286 0.119753 
-7.47497 2.34371 0.08557 
-7.47794 2.34464 0.051363 
-7.48196 2.3459 0.01713 
-8.35502 2.61964 -0.019129 
-9.22608 2.89276 -0.063371 
-9.22647 2.89287 -0.105621 
-9.15143 2.86935 -0.146664 
-9.07772 2.84624 -0.187044 
-9.07859 2.84651 -0.228624 
-9.08368 2.84811 -0.270333 
-9.19707 2.88366 -0.315803 
-8.77872 2.75249 -0.341612 
-7.86512 2.46604 -0.342048 
-8.33245 2.68326 1.57864 
-7.88214 2.53825 1.45773 
-7.79404 2.50988 1.4062 
-7.76884 2.50176 1.36651 
-7.74388 2.49373 1.32706 
-7.71928 2.48581 1.28787 
-7.69496 2.47797 1.24893 
-7.67101 2.47026 1.21024 
-7.64828 2.46294 1.17193 
-7.62954 2.4569 1.1344 
-7.61198 2.45125 1.09719 
-7.59468 2.44568 1.06016 
-7.57759 2.44018 1.02328 
-7.56081 2.43477 0.986589 
-7.54487 2.42964 0.950135 
-7.53061 2.42505 0.914011 
-7.51701 2.42067 0.878076 
-7.50366 2.41637 0.842278 
-7.49475 2.4135 0.807063 
-7.49153 2.41246 0.772502 
-7.48779 2.41126 0.737903 
-7.48318 2.40977 0.703243 
-7.47695 2.40777 0.668467 
-7.47088 2.40581 0.633748 
-7.46364 2.40348 0.598979 
-7.4542 2.40044 0.564098 
-7.44512 2.39752 0.529319 
-7.44044 2.39601 0.494905 
-7.44112 2.39623 0.460857 
-7.44216 2.39656 0.426814 
-7.44474 2.39739 0.392835 
-7.44988 2.39905 0.358949 
-7.45626 2.4011 0.325062 
-7.45939 2.40211 0.290984 
-7.46006 2.40233 0.256787 
-7.46226 2.40304 0.222624 
-7.46478 2.40385 0.188445 
-7.46764 2.40477 0.154246 
-7.47086 2.40581 0.120024 
-7.47421 2.40689 0.085772 
-7.4779 2.40807 0.051489 
-7.48573 2.41059 0.017181 
-9.0798 2.92393 -0.187546 
-9.07919 2.92373 -0.2292 
-9.08451 2.92544 -0.271021 
-9.18725 2.95853 -0.316239 
-8.75959 2.82081 -0.341703 
-7.84788 2.52722 -0.342135 
-8.33136 2.75367 1.5824 
-7.91416 2.61578 1.46732 
-7.79748 2.57721 1.41035 
-7.77167 2.56868 1.37043 
-7.74664 2.56041 1.33086 
-7.72196 2.55225 1.29155 
-7.69756 2.54418 1.25249 
-7.67351 2.53624 1.21367 
-7.65056 2.52865 1.17522 
-7.63143 2.52233 1.13753 
-7.61383 2.51651 1.10021 
-7.5965 2.51078 1.06307 
-7.57937 2.50512 1.02609 
-7.5625 2.49954 0.989284 
-7.5465 2.49425 0.952722 
-7.53235 2.48958 0.916514 
-7.5187 2.48507 0.880476 
-7.50503 2.48055 0.844544 
-7.49564 2.47745 0.809184 
-7.4925 2.47641 0.774539 
-7.48876 2.47517 0.739849 
-7.48441 2.47373 0.705122 
-7.47739 2.47141 0.670182 
-7.46669 2.46788 0.634981 
-7.45543 2.46416 0.599821 
-7.44661 2.46124 0.564937 
-7.43947 2.45888 0.530243 
-7.43868 2.45862 0.496029 
-7.44274 2.45996 0.462113 
-7.44496 2.4607 0.428046 
-7.44936 2.46215 0.394065 
-7.4535 2.46352 0.360023 
-7.45462 2.46389 0.325805 
-7.4749 2.47059 0.29232 
-7.53794 2.49143 0.260118 
-7.61254 2.51608 0.227677 
-7.67122 2.53548 0.194142 
-7.66756 2.53427 0.158773 
-7.62616 2.52059 0.122826 
-7.61178 2.51583 0.087569 
-7.60851 2.51475 0.05252 
-7.61477 2.51682 0.017521 
-7.63204 2.52253 -0.017561 
-8.45886 2.79581 -0.058389 
-9.20562 3.04262 -0.105905 
-9.10862 3.01057 -0.146703 
-9.07887 3.00073 -0.187997 
-9.07975 3.00102 -0.229789 
-9.83008 3.24902 -0.293999 
-9.88592 3.26748 -0.341141 
-8.73644 2.88755 -0.341655 
-7.82725 2.58705 -0.342091 
-7.80121 2.64477 1.41464 
-7.77429 2.63564 1.37441 
-7.74958 2.62727 1.33478 
-7.72485 2.61888 1.29535 
-7.7004 2.61059 1.25616 
-7.67629 2.60242 1.21722 
-7.65314 2.59457 1.17863 
-7.63345 2.5879 1.14075 
-7.61579 2.58191 1.10331 
-7.59839 2.57601 1.06606 
-7.58121 2.57019 1.02897 
-7.56428 2.56445 0.992053 
-7.54826 2.55902 0.955387 
-7.53411 2.55422 0.919078 
-7.52042 2.54958 0.882935 
-7.50666 2.54491 0.846893 
-7.49695 2.54162 0.811399 
-7.49349 2.54045 0.776627 
-7.48976 2.53918 0.741844 
-7.48413 2.53728 0.706903 
-7.47353 2.53368 0.671553 
-7.46011 2.52913 0.636047 
-7.44874 2.52528 0.600818 
-7.44045 2.52247 0.565917 
-7.43663 2.52117 0.5314 
-7.43923 2.52205 0.497337 
-7.444 2.52367 0.463376 
-7.44665 2.52457 0.42924 
-7.45921 2.52883 0.395597 
-7.53239 2.55364 0.364767 
-7.66008 2.59692 0.335643 
-7.68341 2.60483 0.301244 
-7.59897 2.57621 0.262896 
-7.53475 2.55444 0.225928 
-7.49469 2.54085 0.19016 
-7.47452 2.53402 0.155172 
-7.46633 2.53124 0.12056 
-7.4626 2.52997 0.086073 
-7.46166 2.52966 0.051638 
-7.46315 2.53016 0.017216 
-7.46741 2.53161 -0.017226 
-7.47778 2.53512 -0.05175 
-7.50579 2.54462 -0.086571 
-7.55526 2.56139 -0.121996 
-8.34362 2.82866 -0.173215 
-10.6756 3.61924 -0.270868 
-11.3508 3.84817 -0.340352 
-9.86133 3.34319 -0.341165 
-8.71476 2.95448 -0.34168 
-7.80787 2.64703 -0.342119 
-8.32712 2.89395 1.58979 
-7.80472 2.7124 1.41898 
-7.77807 2.70314 1.37868 
-7.75237 2.69421 1.33876 
-7.72665 2.68527 1.29904 
-7.7034 2.67719 1.25994 
-7.67923 2.66879 1.22088 
-7.6559 2.66068 1.18214 
-7.63564 2.65364 1.14406 
-7.61789 2.64748 1.10651 
-7.60052 2.64144 1.06915 
-7.5833 2.63545 1.03195 
-7.56632 2.62955 0.994918 
-7.55028 2.62398 0.958145 
-7.53605 2.61903 0.921721 
-7.52213 2.61419 0.885447 
-7.50837 2.60941 0.849303 
-7.4984 2.60595 0.81368 
-7.49366 2.6043 0.778677 
-7.4883 2.60244 0.743641 
-7.47961 2.59942 0.708325 
-7.46497 2.59433 0.67254 
-7.45255 2.59001 0.637066 
-7.44298 2.58668 0.601925 
-7.43783 2.5849 0.567198 
-7.43952 2.58548 0.532997 
-7.44265 2.58657 0.498868 
-7.44411 2.58708 0.464596 
-7.49252 2.6039 0.433015 
-7.61199 2.64542 0.404756 
-7.6682 2.66496 0.372316 
-7.58958 2.63764 0.333425 
-7.49859 2.60601 0.294767 
-7.46516 2.59439 0.258942 
-7.4555 2.59104 0.224137 
-7.4523 2.58993 0.18958 
-7.45131 2.58958 0.155095 
-7.45076 2.58939 0.120624 
-7.45036 2.58925 0.086157 
-7.4501 2.58916 0.051693 
-7.44999 2.58912 0.017231 
-7.45002 2.58913 -0.017231 
-7.45019 2.58919 -0.051694 
-7.45155 2.58966 -0.08617 
-7.45624 2.5913 -0.120712 
-7.46936 2.59585 -0.155471 
-7.5211 2.61384 -0.19133 
-9.06041 3.1488 -0.272385 
-9.83395 3.41763 -0.341108 
-8.69054 3.02026 -0.341623 
-7.78614 2.70595 -0.34206 
-8.32713 2.96495 1.59405 
-7.82216 2.78514 1.42595 
-7.78017 2.77019 1.38274 
-7.75453 2.76107 1.34271 
-7.72896 2.75196 1.3029 
-7.70421 2.74315 1.26344 
-7.68028 2.73463 1.22431 
-7.65813 2.72674 1.18565 
-7.63799 2.71957 1.14747 
-7.61989 2.71313 1.10976 
-7.6023 2.70686 1.07226 
-7.5854 2.70085 1.03499 
-7.5684 2.69479 0.99785 
-7.55223 2.68903 0.960953 
-7.53775 2.68388 0.924392 
-7.52375 2.67889 0.888005 
-7.51596 2.67612 0.852433 
-7.51656 2.67633 0.81783 
-7.50502 2.67223 0.781942 
-7.48562 2.66532 0.745361 
-7.47345 2.66098 0.709633 
-7.46005 2.65621 0.673893 
-7.44831 2.65203 0.638405 
-7.44022 2.64915 0.60331 
-7.43885 2.64866 0.568791 
-7.44123 2.64951 0.534545 
-7.44199 2.64978 0.500157 
-7.49362 2.66817 0.468936 
-7.61393 2.711 0.441207 
-7.65031 2.72396 0.407881 
-7.54905 2.6879 0.36751 
-7.46862 2.65926 0.328987 
-7.45726 2.65522 0.293926 
-7.4544 2.6542 0.25926 
-7.45343 2.65386 0.224673 
-7.45261 2.65356 0.190094 
-7.45193 2.65332 0.155522 
-7.45138 2.65313 0.120956 
-7.45096 2.65298 0.086394 
-7.4507 2.65288 0.051835 
-7.45059 2.65285 0.017278 
-7.45063 2.65286 -0.017278 
-7.4508 2.65292 -0.051836 
-7.45111 2.65303 -0.086396 
-7.45156 2.65319 -0.120959 
-7.45215 2.6534 -0.155527 
-7.45586 2.65472 -0.190177 
-7.47768 2.66249 -0.225404 
-8.35922 2.97637 -0.290729 
-8.66783 3.08625 -0.34164 
-7.76571 2.76504 -0.342074 
-7.85586 2.86421 1.436 
-7.78347 2.83782 1.38709 
-7.75783 2.82847 1.34694 
-7.73256 2.81926 1.30706 
-7.70754 2.81014 1.26743 
-7.6831 2.80123 1.22809 
-7.6615 2.79335 1.1894 
-7.64267 2.78648 1.1513 
-7.62313 2.77936 1.11325 
-7.60447 2.77256 1.07549 
-7.58698 2.76618 1.03803 
-7.57035 2.76012 1.00083 
-7.55415 2.75421 0.963818 
-7.53942 2.74884 0.927118 
-7.52539 2.74373 0.89062 
-7.50833 2.7375 0.85389 
-7.49135 2.73131 0.81731 
-7.48699 2.72973 0.78219 
-7.48218 2.72797 0.74705 
-7.46883 2.7231 0.711128 
-7.45668 2.71867 0.675424 
-7.4456 2.71463 0.639912 
-7.43978 2.71251 0.604919 
-7.44132 2.71307 0.570532 
-7.44182 2.71326 0.536045 
-7.47059 2.72375 0.503448 
-7.5604 2.75649 0.474404 
-7.67904 2.79975 0.446193 
-7.61574 2.77666 0.407145 
-7.46749 2.72262 0.36453 
-7.45773 2.71905 0.329403 
-7.45613 2.71847 0.294683 
-7.45503 2.71807 0.259989 
-7.81923 2.85086 0.236342 
-8.23201 3.00136 0.210547 
-7.87725 2.87201 0.164847 
-7.47601 2.72572 0.121687 
-7.49542 2.7328 0.087146 
-7.49536 2.73277 -0.087146 
-7.45219 2.71704 -0.121299 
-7.45278 2.71725 -0.155964 
-7.4535 2.71751 -0.190635 
-7.45632 2.71854 -0.225373 
-7.47588 2.72568 -0.260716 
-7.83814 2.85775 -0.309781 
-7.7465 2.82434 -0.342158 
-7.78752 2.90589 1.39167 
-7.76115 2.89605 1.35126 
-7.73579 2.88659 1.31124 
-7.71073 2.87723 1.27148 
-7.68639 2.86815 1.23204 
-7.6644 2.85995 1.19316 
-7.64524 2.85279 1.15489 
-7.6266 2.84584 1.11686 
-7.60845 2.83907 1.07904 
-7.59029 2.83229 1.04137 
-7.5723 2.82558 1.00387 
-7.55599 2.81949 0.966732 
-7.54112 2.81394 0.929905 
-7.52708 2.80871 0.893297 
-7.51329 2.80356 0.85683 
-7.50263 2.79958 0.820816 
-7.49395 2.79634 0.785094 
-7.48033 2.79126 0.748942 
-7.467 2.78629 0.71293 
-7.4556 2.78203 0.677204 
-7.44641 2.7786 0.641762 
-7.44243 2.77712 0.606817 
-7.44265 2.7772 0.57222 
-7.44163 2.77682 0.537521 
-7.48921 2.79458 0.506106 
-7.59637 2.83456 0.477987 
-7.5811 2.82886 0.441727 
-7.48133 2.79163 0.401071 
-7.46076 2.78396 0.365214 
-7.45802 2.78293 0.330332 
-7.45677 2.78247 0.295527 
-7.77007 2.89938 0.271729 
-8.10634 3.02485 0.245701 
-8.12929 3.03342 0.208498 
-7.8343 2.92334 0.164404 
-7.49492 2.79671 0.122334 
-7.47573 2.78955 0.087159 
-7.4764 2.78979 0.052301 
-7.47798 2.79038 0.017437 
-7.47786 2.79034 -0.017437 
-7.47476 2.78918 -0.052289 
-7.47488 2.78923 -0.087149 
-7.45414 2.78149 -0.191182 
-7.45501 2.78181 -0.22596 
-7.45924 2.78339 -0.260859 
-7.81105 2.91467 -0.309568 
-7.72309 2.88185 -0.342072 
-8.23436 3.14316 1.55157 
-7.79177 2.97421 1.39638 
-7.76459 2.96384 1.35569 
-7.73923 2.95416 1.31554 
-7.71441 2.94469 1.27569 
-7.69056 2.93558 1.2362 
-7.66914 2.92741 1.19728 
-7.64983 2.92003 1.15886 
-7.63074 2.91275 1.12063 
-7.61192 2.90557 1.08259 
-7.59343 2.89851 1.04475 
-7.57547 2.89165 1.00714 
-7.55835 2.88512 0.969775 
-7.54311 2.8793 0.932786 
-7.52892 2.87388 0.896047 
-7.51511 2.86861 0.859465 
-7.50439 2.86452 0.823335 
-7.49534 2.86106 0.787465 
-7.4803 2.85532 0.751061 
-7.46529 2.8496 0.714787 
-7.45353 2.8451 0.678935 
-7.44582 2.84216 0.643529 
-7.4435 2.84128 0.608623 
-7.44317 2.84115 0.573882 
-7.45182 2.84445 0.539783 
-7.50739 2.86566 0.508772 
-7.6041 2.90258 0.479829 
-7.57277 2.89062 0.442493 
-7.47019 2.85146 0.401609 
-7.46003 2.84759 0.366214 
-7.45865 2.84706 0.331296 
-7.47028 2.8515 0.296902 
-7.4829 2.85632 0.262428 
-7.48199 2.85597 0.22742 
-7.4812 2.85567 0.19242 
-7.4787 2.85471 0.157387 
-7.47538 2.85344 0.12236 
-7.47347 2.85272 0.08738 
-7.47441 2.85308 0.052435 
-7.47469 2.85318 0.017479 
-7.4753 2.85342 -0.017481 
-7.45477 2.84558 -0.19174 
-7.45564 2.84591 -0.226619 
-7.45807 2.84684 -0.261557 
-7.7987 2.97686 -0.309954 
-7.70281 2.94026 -0.342141 
-7.91297 3.08839 1.45877 
-7.82333 3.0534 1.40608 
-7.76838 3.03195 1.36027 
-7.74312 3.02209 1.32 
-7.71833 3.01242 1.28002 
-7.695 3.00331 1.24048 
-7.67395 2.9951 1.20149 
-7.65444 2.98748 1.16291 
-7.63531 2.98002 1.12454 
-7.61645 2.97266 1.08636 
-7.59782 2.96538 1.04838 
-7.57946 2.95822 1.01058 
-7.56211 2.95145 0.973059 
-7.54701 2.94555 0.935963 
-7.53269 2.93997 0.899085 
-7.51869 2.9345 0.862358 
-7.50775 2.93023 0.826082 
-7.49788 2.92638 0.790005 
-7.48336 2.92071 0.753537 
-7.4692 2.91518 0.717226 
-7.45508 2.90967 0.681036 
-7.44529 2.90585 0.645341 
-7.44341 2.90512 0.610373 
-7.44349 2.90515 0.575563 
-7.452 2.90847 0.541354 
-7.50646 2.92973 0.510178 
-7.59736 2.9652 0.480788 
-7.56717 2.95342 0.443441 
-7.47158 2.91611 0.402844 
-7.46067 2.91185 0.367302 
-7.45928 2.91131 0.33228 
-7.48918 2.92298 0.298512 
-7.60977 2.97005 0.267648 
-7.8203 3.05222 0.23839 
-7.95527 3.1049 0.205204 
-7.72604 3.01543 0.163061 
-7.47618 2.91791 0.122727 
-7.47601 2.91784 0.087662 
-7.4768 2.91815 0.052603 
-7.47495 2.91743 0.01753 
-7.47593 2.91781 -0.017532 
-7.4986 2.92666 -0.052757 
-7.55636 2.9492 -0.15948 
-7.45541 2.9098 -0.19231 
-7.45627 2.91014 -0.227293 
-7.45869 2.91108 -0.262334 
-7.78687 3.03917 -0.310378 
-7.68052 2.99766 -0.342136 
-7.87421 3.14096 1.41939 
-7.77369 3.10086 1.3652 
-7.74712 3.09026 1.32457 
-7.72289 3.0806 1.28454 
-7.6998 3.07139 1.24491 
-7.67889 3.06305 1.2058 
-7.65915 3.05518 1.16704 
-7.63995 3.04751 1.12853 
-7.62102 3.03997 1.09021 
-7.60232 3.03251 1.05208 
-7.58415 3.02526 1.01417 
-7.56706 3.01844 0.976558 
-7.55137 3.01218 0.939258 
-7.53704 3.00646 0.902247 
-7.52331 3.00099 0.865425 
-7.51311 2.99692 0.829102 
-7.50272 2.99277 0.792839 
-7.48637 2.98625 0.756057 
-7.47143 2.98029 0.719549 
-7.45688 2.97449 0.683203 
-7.4464 2.97031 0.647335 
-7.44391 2.96932 0.612209 
-7.44404 2.96937 0.577298 
-7.44945 2.97153 0.54276 
-7.4946 2.98954 0.510869 
-7.57478 3.02152 0.480768 
-7.64772 3.05062 0.449479 
-7.58033 3.02373 0.409908 
-7.46277 2.97684 0.368486 
-7.45992 2.9757 0.333286 
-7.45867 2.97521 0.29817 
-7.50252 2.9927 0.264651 
-7.5959 3.02994 0.23223 
-7.76159 3.09604 0.200796 
-7.89746 3.15023 0.167169 
-7.69717 3.07034 0.126726 
-7.47805 2.98293 0.087943 
-7.47954 2.98353 0.052777 
-7.47786 2.98286 -0.052765 
-7.47661 2.98236 -0.087926 
-7.48041 2.98388 -0.123157 
-7.46905 2.97935 -0.158101 
-7.45604 2.97416 -0.192891 
-7.45692 2.97451 -0.227981 
-7.46155 2.97635 -0.263206 
-7.77658 3.10202 -0.310879 
-7.6572 3.0544 -0.3421 
-7.78319 3.17171 1.37096 
-7.75246 3.15919 1.32945 
-7.72763 3.14907 1.28918 
-7.70495 3.13983 1.24947 
-7.68393 3.13126 1.2102 
-7.66396 3.12312 1.17127 
-7.64468 3.11527 1.13261 
-7.6257 3.10753 1.09415 
-7.60725 3.10002 1.05591 
-7.58953 3.0928 1.01793 
-7.57186 3.08559 0.980102 
-7.55578 3.07904 0.942618 
-7.54157 3.07325 0.905492 
-7.52825 3.06782 0.868584 
-7.51844 3.06382 0.832173 
-7.50873 3.05987 0.79585 
-7.49214 3.05311 0.758904 
-7.47569 3.0464 0.722114 
-7.46053 3.04023 0.685584 
-7.44859 3.03536 0.649463 
-7.44401 3.03349 0.614049 
-7.44451 3.0337 0.579063 
-7.44353 3.0333 0.543952 
-7.47323 3.0454 0.510937 
-7.54014 3.07267 0.480002 
-7.60045 3.09725 0.448038 
-7.65133 3.11798 0.414986 
-7.57423 3.08656 0.375108 
-7.46092 3.04038 0.334328 
-7.45932 3.03974 0.299089 
-7.45821 3.03928 0.263876 
-7.47376 3.04562 0.22918 
-7.52079 3.06478 0.195149 
-7.51729 3.06335 0.159598 
-7.47907 3.04778 0.123504 
-7.55278 3.07782 0.089088 
-7.62902 3.10889 0.053993 
-7.61973 3.1051 0.017976 
-7.59611 3.09548 -0.01792 
-7.55623 3.07923 -0.053478 
-7.49616 3.05475 -0.08842 
-7.45826 3.0393 -0.12316 
-7.45596 3.03836 -0.158296 
-7.4567 3.03867 -0.193486 
-7.45952 3.03981 -0.228743 
-8.26315 3.3673 -0.292355 
-8.52081 3.4723 -0.34165 
-7.63399 3.11091 -0.342083 
-7.85572 3.2691 1.38795 
-7.76353 3.23073 1.3354 
-7.73321 3.21812 1.29404 
-7.71008 3.20849 1.2541 
-7.68896 3.19971 1.21468 
-7.66878 3.19131 1.17558 
-7.64949 3.18328 1.13677 
-7.63084 3.17552 1.09822 
-7.61299 3.16809 1.05993 
-7.595 3.1606 1.02177 
-7.57667 3.15297 0.983711 
-7.56027 3.14615 0.94605 
-7.54632 3.14035 0.908821 
-7.53347 3.135 0.871833 
-7.52387 3.131 0.83531 
-7.51482 3.12724 0.79892 
-7.49863 3.1205 0.761875 
-7.48189 3.11353 0.724914 
-7.46626 3.10703 0.688199 
-7.45215 3.10116 0.651752 
-7.44446 3.09796 0.615956 
-7.44476 3.09808 0.580845 
-7.44467 3.09804 0.545691 
-7.45584 3.10269 0.5113 
-7.4946 3.11882 0.478555 
-7.54506 3.13982 0.446127 
-7.5876 3.15753 0.412783 
-7.62205 3.17186 0.378626 
-7.55429 3.14366 0.339543 
-7.46162 3.1051 0.300092 
-7.45888 3.10396 0.264703 
-7.45791 3.10355 0.22939 
-7.45709 3.10321 0.194085 
-7.4564 3.10293 0.158787 
-7.45816 3.10366 0.123533 
-7.46536 3.10666 0.088325 
-7.46918 3.10824 0.053023 
-7.46142 3.10502 0.017656 
-7.45511 3.10239 -0.017641 
-7.45528 3.10246 -0.052924 
-7.45559 3.10259 -0.088209 
-7.45603 3.10277 -0.123498 
-7.45663 3.10302 -0.158792 
-7.46027 3.10454 -0.194168 
-8.89114 3.69998 -0.273473 
-9.61214 4.00002 -0.341119 
-8.49458 3.53496 -0.341636 
-7.61062 3.1671 -0.342075 
-7.78642 3.30765 1.34348 
-7.74608 3.29051 1.30021 
-7.7166 3.27799 1.25905 
-7.69408 3.26842 1.21925 
-7.67373 3.25978 1.17998 
-7.65481 3.25174 1.14109 
-7.63667 3.24404 1.10246 
-7.61868 3.23639 1.064 
-7.6003 3.22858 1.02565 
-7.58146 3.22058 0.987381 
-7.5649 3.21355 0.949561 
-7.55132 3.20778 0.91224 
-7.53865 3.20239 0.875134 
-7.52928 3.19842 0.838499 
-7.52079 3.19481 0.802031 
-7.50596 3.18851 0.764981 
-7.49138 3.18232 0.728081 
-7.47647 3.17598 0.691275 
-7.46235 3.16998 0.654665 
-7.44985 3.16467 0.618311 
-7.44466 3.16247 0.582636 
-7.44641 3.16321 0.547509 
-7.44619 3.16312 0.51222 
-7.45459 3.16669 0.477475 
-7.48548 3.17981 0.443975 
-7.5221 3.19536 0.410487 
-7.55047 3.20742 0.376232 
-7.57268 3.21685 0.341423 
-7.5895 3.224 0.30618 
-7.53224 3.19967 0.268134 
-7.46086 3.16935 0.230191 
-7.45777 3.16804 0.194704 
-7.45709 3.16775 0.159294 
-7.45654 3.16752 0.123889 
-7.45613 3.16734 0.088489 
-7.45586 3.16723 0.053092 
-7.45576 3.16718 0.017697 
-7.4558 3.1672 -0.017697 
-7.45596 3.16727 -0.053093 
-7.45649 3.16749 -0.088493 
-7.46132 3.16954 -0.123969 
-10.8709 4.61791 -0.232217 
-11.0306 4.68575 -0.340328 
-9.58297 4.07082 -0.341137 
-8.4687 3.59748 -0.34165 
-7.58736 3.22309 -0.342085 
-7.77578 3.37058 1.3093 
-7.73614 3.3534 1.26622 
-7.70226 3.33871 1.22439 
-7.67972 3.32894 1.18462 
-7.66072 3.32071 1.14556 
-7.64254 3.31283 1.10678 
-7.62437 3.30495 1.06815 
-7.60554 3.29679 1.02958 
-7.58648 3.28853 0.991146 
-7.57 3.28138 0.953193 
-7.55664 3.27559 0.915757 
-7.54391 3.27007 0.878502 
-7.53477 3.26611 0.841753 
-7.52711 3.26279 0.805232 
-7.51363 3.25694 0.768173 
-7.50124 3.25158 0.731335 
-7.4891 3.24631 0.694622 
-7.47777 3.24141 0.658084 
-7.46721 3.23682 0.621703 
-7.45687 3.23234 0.585429 
-7.45101 3.2298 0.549572 
-7.45001 3.22937 0.514096 
-7.4481 3.22854 0.478562 
-7.44605 3.22765 0.443027 
-7.45648 3.23218 0.408187 
-7.47915 3.242 0.373852 
-7.49799 3.25017 0.33912 
-7.51385 3.25704 0.304083 
-7.52694 3.26272 0.268789 
-7.53937 3.26811 0.233346 
-7.55364 3.27429 0.197828 
-7.57325 3.28279 0.162284 
-7.53178 3.26481 0.125533 
-7.47414 3.23983 0.088982 
-7.47196 3.23889 0.053374 
-7.47546 3.2404 0.0178 
-9.55246 4.14072 -0.341121 
-8.44172 3.65925 -0.341633 
-7.56317 3.27842 -0.342068 
-7.72878 3.41742 1.23254 
-7.69198 3.40115 1.19031 
-7.66892 3.39096 1.15046 
-7.64859 3.38196 1.1112 
-7.63012 3.3738 1.07238 
-7.6117 3.36566 1.03372 
-7.59471 3.35814 0.995396 
-7.57862 3.35103 0.957333 
-7.56321 3.34421 0.919486 
-7.54916 3.338 0.881928 
-7.54028 3.33407 0.845064 
-7.53351 3.33108 0.808496 
-7.52255 3.32624 0.771547 
-7.51491 3.32286 0.735013 
-7.50698 3.31935 0.698509 
-7.49715 3.315 0.6619 
-7.48574 3.30996 0.625241 
-7.47515 3.30527 0.588742 
-7.46686 3.30161 0.552504 
-7.45926 3.29825 0.516382 
-7.45378 3.29583 0.480459 
-7.452 3.29504 0.4448 
-7.44983 3.29408 0.409128 
-7.44777 3.29317 0.373475 
-7.44617 3.29246 0.337854 
-7.44582 3.29231 0.302294 
-7.45174 3.29492 0.266955 
-7.46398 3.30034 0.231752 
-7.478 3.30654 0.196474 
-7.49647 3.3147 0.161153 
-7.52119 3.32563 0.125758 
-9.52308 4.2108 -0.34116 
-8.41568 3.72115 -0.341669 
-7.72438 3.48283 1.19921 
-7.68927 3.467 1.15726 
-7.66186 3.45464 1.11675 
-7.64229 3.44582 1.07758 
-7.62493 3.43799 1.03888 
-7.60842 3.43054 1.00043 
-7.59236 3.4233 0.962186 
-7.57644 3.41613 0.924089 
-7.56034 3.40886 0.886105 
-7.54902 3.40376 0.848795 
-7.5435 3.40127 0.8122 
-7.53529 3.39757 0.775366 
-7.52749 3.39405 0.738636 
-7.51987 3.39062 0.701983 
-7.51307 3.38755 0.665463 
-7.50655 3.38461 0.629018 
-7.49902 3.38122 0.592543 
-7.49382 3.37887 0.556302 
-7.48909 3.37674 0.520132 
-7.47591 3.3708 0.483452 
-7.46454 3.36567 0.446997 
-7.4623 3.36466 0.411145 
-7.45984 3.36355 0.375296 
-7.45801 3.36273 0.339492 
-7.45812 3.36278 0.303778 
-7.4602 3.36371 0.268127 
-7.46569 3.36619 0.232559 
-7.47624 3.37095 0.197066 
-7.50054 3.3819 0.161765 
-7.56224 3.40972 0.126855 
-9.49221 4.27992 -0.34116 
-8.3884 3.78223 -0.341669 
-7.72545 3.55086 1.16655 
-7.6903 3.5347 1.1246 
-7.66013 3.52083 1.08366 
-7.63972 3.51145 1.04433 
-7.62304 3.50378 1.00567 
-7.60655 3.49621 0.967169 
-7.59043 3.4888 0.928853 
-7.57464 3.48154 0.890712 
-7.56244 3.47593 0.853111 
-7.55518 3.4726 0.816145 
-7.54629 3.46851 0.779063 
-7.5383 3.46483 0.74214 
-7.53083 3.4614 0.705328 
-7.52436 3.45843 0.668663 
-7.5188 3.45587 0.632125 
-7.5147 3.45399 0.595743 
-7.51308 3.45324 0.559573 
-7.51179 3.45265 0.523432 
-7.50082 3.44761 0.486665 
-7.48385 3.43981 0.449633 
-7.47634 3.43636 0.413279 
-7.47395 3.43526 0.377248 
-7.47231 3.4345 0.341266 
-7.47215 3.43443 0.305354 
-7.47431 3.43543 0.269522 
-7.48099 3.4385 0.233805 
-7.49582 3.44531 0.198235 
-7.52597 3.45917 0.16285 
-9.45991 4.34807 -0.341122 
-8.35995 3.84249 -0.341635 
-7.69624 3.60491 1.09242 
-7.66601 3.59075 1.05144 
-7.63964 3.5784 1.01124 
-7.62134 3.56983 0.972299 
-7.60481 3.56208 0.933733 
-7.58876 3.55457 0.895366 
-7.57559 3.5484 0.857461 
-7.56697 3.54436 0.820158 
-7.55822 3.54026 0.782911 
-7.54928 3.53607 0.745713 
-7.54198 3.53265 0.708741 
-7.53622 3.52995 0.671963 
-7.5312 3.5276 0.63529 
-7.52807 3.52614 0.598804 
-7.52721 3.52573 0.562506 
-7.52655 3.52543 0.526219 
-7.51632 3.52063 0.489306 
-7.49918 3.5126 0.452065 
-7.49152 3.50902 0.415507 
-7.48922 3.50794 0.379286 
-7.48791 3.50732 0.343125 
-7.48802 3.50738 0.307029 
-7.49042 3.5085 0.271009 
-7.49832 3.5122 0.235132 
-7.52006 3.52239 0.199543 
-9.42859 4.41634 -0.341133 
-8.33232 3.90285 -0.341647 
-7.67779 3.66378 1.01975 
-7.65505 3.65293 0.979923 
-7.63062 3.64127 0.940091 
-7.60778 3.63037 0.900664 
-7.59161 3.62266 0.862199 
-7.58076 3.61748 0.82445 
-7.57132 3.61297 0.786937 
-7.5627 3.60886 0.749581 
-7.55724 3.60626 0.712593 
-7.55281 3.60414 0.675735 
-7.54901 3.60233 0.63896 
-7.5459 3.60084 0.602265 
-7.54415 3.60001 0.565691 
-7.54359 3.59974 0.529206 
-7.53396 3.59514 0.492123 
-7.5169 3.58701 0.454676 
-7.50861 3.58305 0.417872 
-7.50627 3.58193 0.381443 
-7.50517 3.58141 0.345087 
-7.50532 3.58148 0.308786 
-7.50984 3.58364 0.272636 
-7.52235 3.58961 0.236689 
-8.30342 3.96232 -0.341621 
-7.6584 3.72208 0.90979 
-7.63987 3.71307 0.870677 
-7.62258 3.70466 0.831861 
-7.60414 3.6957 0.793078 
-7.59209 3.68985 0.755094 
-7.58646 3.68711 0.717818 
-7.58215 3.68502 0.680703 
-7.57872 3.68335 0.64369 
-7.57615 3.6821 0.606768 
-7.57456 3.68133 0.569932 
-7.57462 3.68135 0.533218 
-7.56446 3.67642 0.495823 
-7.54475 3.66684 0.457937 
-7.53557 3.66238 0.420821 
-7.53394 3.66158 0.384172 
-7.53315 3.6612 0.34757 
-7.53443 3.66182 0.311054 
-7.54411 3.66652 0.274826 
-8.27516 4.02182 -0.341634 
-7.67592 3.7985 0.318006 
-8.24574 4.08048 -0.341613 
-8.21694 4.13917 -0.341629 
