ply
format ascii 1.0
comment Created by CloudCompare v2.10.1 (Zephyrus)
comment Created 08/03/20 17:09
obj_info Generated by CloudCompare!
element vertex 663
property float x
property float y
property float z
end_header
-1.58885 -5.36492 1.12902 
-1.58674 -5.3578 1.1036 
-1.58497 -5.35183 1.07845 
-1.5832 -5.34586 1.05333 
-1.58142 -5.33984 1.02824 
-1.58003 -5.33515 1.00343 
-1.57877 -5.33087 0.978726 
-1.57753 -5.3267 0.954057 
-1.57634 -5.32268 0.929433 
-1.5755 -5.31983 0.905026 
-1.57488 -5.31774 0.880752 
-1.57429 -5.31575 0.856498 
-1.57402 -5.31483 0.832414 
-1.57464 -5.31693 0.80878 
-1.5737 -5.31377 0.784336 
-1.573 -5.31141 0.760021 
-1.57243 -5.30948 0.735771 
-1.57204 -5.30815 0.711605 
-1.5719 -5.30768 0.687548 
-1.57199 -5.30798 0.66358 
-1.57212 -5.30844 0.639615 
-1.57238 -5.30932 0.615683 
-1.57294 -5.31122 0.591844 
-1.57353 -5.31319 0.567984 
-1.57334 -5.31256 0.54383 
-1.57264 -5.31018 0.5195 
-1.57233 -5.30915 0.495307 
-1.57244 -5.30949 0.471237 
-1.5731 -5.31174 0.447313 
-1.57425 -5.31561 0.423491 
-1.78463 -6.02601 -0.343084 
-1.65382 -5.58429 -0.343342 
-1.63272 -5.35976 1.15454 
-1.62907 -5.34778 1.12804 
-1.62788 -5.34388 1.1033 
-1.62663 -5.33976 1.07853 
-1.62466 -5.3333 1.05331 
-1.62279 -5.32715 1.0282 
-1.62113 -5.3217 1.00324 
-1.61967 -5.31692 0.978444 
-1.61846 -5.31295 0.953817 
-1.61742 -5.30954 0.929303 
-1.61665 -5.30701 0.904955 
-1.61601 -5.30492 0.880682 
-1.6157 -5.30388 0.856583 
-1.61535 -5.30275 0.832462 
-1.61473 -5.3007 0.808196 
-1.6142 -5.29895 0.783977 
-1.61392 -5.29804 0.759878 
-1.61376 -5.29751 0.735827 
-1.61376 -5.29753 0.71184 
-1.61399 -5.29827 0.687933 
-1.61433 -5.29939 0.664054 
-1.6149 -5.30125 0.640241 
-1.61568 -5.30383 0.616483 
-1.61689 -5.30779 0.592844 
-1.61807 -5.31166 0.569147 
-1.61815 -5.31193 0.545036 
-1.61739 -5.30944 0.520641 
-1.61733 -5.30925 0.496474 
-1.83139 -6.01193 -0.343082 
-1.69714 -5.57125 -0.34334 
-1.58132 -5.19102 -0.343574 
-1.68329 -5.37617 1.18492 
-1.67529 -5.35063 1.15533 
-1.67163 -5.33893 1.12887 
-1.67041 -5.33504 1.10411 
-1.67102 -5.33698 1.08055 
-1.67369 -5.34551 1.05825 
-1.67538 -5.35092 1.03525 
-1.67765 -5.35817 1.01254 
-1.68076 -5.3681 0.990228 
-1.68355 -5.377 0.967625 
-1.68628 -5.38572 0.944892 
-1.68917 -5.39495 0.922151 
-1.6919 -5.40367 0.899223 
-1.6933 -5.40814 0.875512 
-1.69399 -5.41035 0.851386 
-1.69377 -5.40963 0.826777 
-1.69376 -5.40962 0.802265 
-1.6945 -5.41198 0.778077 
-1.66327 -5.31224 0.667257 
-1.66239 -5.30943 0.642763 
-1.66154 -5.30671 0.618294 
-1.66072 -5.3041 0.59385 
-1.65994 -5.3016 0.569429 
-1.65919 -5.29919 0.545031 
-1.65847 -5.2969 0.520654 
-1.6578 -5.29475 0.496303 
-1.65718 -5.29278 0.471978 
-1.65659 -5.2909 0.447669 
-1.65602 -5.28909 0.423374 
-1.65549 -5.28737 0.399095 
-1.65498 -5.28576 0.374831 
-1.65451 -5.28426 0.350582 
-1.65407 -5.28285 0.326346 
-1.65366 -5.28154 0.302123 
-1.65348 -5.28097 0.277944 
-1.6537 -5.28166 0.253826 
-1.65421 -5.2833 0.229738 
-1.65487 -5.28541 0.205649 
-1.65557 -5.28763 0.18154 
-1.65678 -5.2915 0.157457 
-1.66062 -5.30376 0.133547 
-1.66394 -5.31436 0.109487 
-1.66418 -5.31512 0.085171 
-1.66409 -5.31483 0.060834 
-1.66402 -5.31464 0.0365 
-1.66399 -5.31452 0.012166 
-1.66403 -5.31465 -0.012167 
-1.66484 -5.31724 -0.036518 
-1.67924 -5.36323 -0.306795 
-1.68021 -5.36635 -0.331504 
-1.62133 -5.17827 -0.34355 
-1.72149 -5.35312 1.18273 
-1.7155 -5.3345 1.15466 
-1.71179 -5.32296 1.12825 
-1.71042 -5.31871 1.10343 
-1.71031 -5.31835 1.07941 
-1.71036 -5.31852 1.05549 
-1.71045 -5.31879 1.03156 
-1.71102 -5.32058 1.00789 
-1.71119 -5.32111 0.983963 
-1.71112 -5.32087 0.95987 
-1.71106 -5.32068 0.935768 
-1.7109 -5.32019 0.911599 
-1.71064 -5.31938 0.887363 
-1.70993 -5.31717 0.862892 
-1.70883 -5.31376 0.838234 
-1.70763 -5.31003 0.813542 
-1.70564 -5.30385 0.788506 
-1.70382 -5.29819 0.763583 
-1.70212 -5.29288 0.738748 
-1.69889 -5.28285 0.713308 
-1.6926 -5.26328 0.686703 
-1.68663 -5.24472 0.66039 
-1.68356 -5.23519 0.635328 
-1.68263 -5.2323 0.611117 
-1.68183 -5.2298 0.586965 
-1.68106 -5.2274 0.562835 
-1.68032 -5.2251 0.538726 
-1.67964 -5.22298 0.514646 
-1.6793 -5.22193 0.490676 
-1.6794 -5.22225 0.466828 
-1.67957 -5.22276 0.442986 
-1.67977 -5.22338 0.419138 
-1.68 -5.2241 0.395284 
-1.68027 -5.22494 0.371425 
-1.68074 -5.22641 0.347593 
-1.68156 -5.22894 0.323807 
-1.68255 -5.23204 0.300024 
-1.6836 -5.23529 0.276215 
-1.68471 -5.23875 0.25238 
-1.6859 -5.24246 0.22852 
-1.68718 -5.24644 0.204632 
-1.6886 -5.25086 0.180719 
-1.68925 -5.25286 0.15669 
-1.6884 -5.25023 0.132522 
-1.68714 -5.24633 0.10835 
-1.68613 -5.24317 0.084224 
-1.68517 -5.2402 0.060127 
-1.68428 -5.23742 0.036058 
-1.68363 -5.2354 0.012015 
-1.68327 -5.23429 -0.012012 
-1.68303 -5.23353 -0.036031 
-1.68283 -5.2329 -0.060043 
-1.68279 -5.2328 -0.084057 
-1.68299 -5.23342 -0.108084 
-1.6833 -5.23438 -0.132122 
-1.68365 -5.23544 -0.156171 
-1.68402 -5.23661 -0.180229 
-1.68443 -5.2379 -0.204299 
-1.6844 -5.23778 -0.228316 
-1.6831 -5.23375 -0.252139 
-1.68124 -5.22796 -0.275828 
-1.68096 -5.22709 -0.29974 
-1.70337 -5.2968 -0.328009 
-1.6614 -5.16627 -0.343594 
-1.8163 -5.50262 1.44058 
-1.81167 -5.4886 1.41243 
-1.81172 -5.48874 1.38796 
-1.81321 -5.49326 1.36456 
-1.81575 -5.50096 1.34186 
-1.81937 -5.51192 1.31985 
-1.82384 -5.52548 1.29832 
-1.82926 -5.5419 1.27731 
-1.7942 -5.43567 1.22841 
-1.76646 -5.35163 1.18536 
-1.75949 -5.33052 1.15669 
-1.75589 -5.3196 1.13036 
-1.75432 -5.31486 1.10539 
-1.75373 -5.31307 1.08104 
-1.75328 -5.31171 1.05677 
-1.75273 -5.31005 1.03244 
-1.75206 -5.30802 1.00803 
-1.75155 -5.30648 0.983715 
-1.7508 -5.30418 0.959256 
-1.74986 -5.30134 0.934703 
-1.74893 -5.29852 0.910161 
-1.74778 -5.29506 0.885519 
-1.74615 -5.2901 0.86065 
-1.74455 -5.28526 0.835827 
-1.7428 -5.27995 0.810961 
-1.74087 -5.27412 0.786049 
-1.73888 -5.2681 0.761148 
-1.73641 -5.2606 0.736081 
-1.73377 -5.2526 0.711 
-1.73106 -5.24439 0.685952 
-1.72792 -5.23488 0.660801 
-1.72515 -5.22649 0.635861 
-1.7236 -5.2218 0.611418 
-1.72283 -5.21946 0.587271 
-1.7221 -5.21724 0.563148 
-1.72155 -5.21558 0.539091 
-1.72128 -5.21476 0.515123 
-1.72108 -5.21416 0.491173 
-1.72099 -5.2139 0.467249 
-1.72114 -5.21434 0.443379 
-1.72144 -5.21526 0.419535 
-1.72181 -5.21636 0.395687 
-1.72239 -5.21814 0.371871 
-1.72322 -5.22065 0.34808 
-1.72409 -5.22328 0.324267 
-1.72514 -5.22645 0.300454 
-1.72642 -5.23035 0.276645 
-1.72782 -5.23458 0.252811 
-1.72936 -5.23923 0.228951 
-1.73115 -5.24466 0.205075 
-1.73312 -5.25062 0.181164 
-1.73358 -5.25203 0.157058 
-1.73218 -5.24778 0.132793 
-1.73068 -5.24325 0.108558 
-1.72943 -5.23946 0.084375 
-1.72829 -5.23601 0.060229 
-1.72739 -5.23327 0.036119 
-1.72669 -5.23116 0.012035 
-1.72613 -5.22945 -0.012031 
-1.72579 -5.22844 -0.036086 
-1.7256 -5.22786 -0.060136 
-1.72561 -5.22788 -0.084189 
-1.72587 -5.22866 -0.108256 
-1.72621 -5.22969 -0.132335 
-1.72659 -5.23083 -0.156424 
-1.72699 -5.23207 -0.180524 
-1.72744 -5.23341 -0.204635 
-1.72721 -5.23273 -0.228667 
-1.7252 -5.22663 -0.252427 
-1.722 -5.21695 -0.275936 
-1.72083 -5.2134 -0.299704 
-1.74391 -5.28331 -0.327993 
-1.70113 -5.15372 -0.343617 
-1.8504 -5.46517 1.45884 
-1.84194 -5.44019 1.42788 
-1.83878 -5.43084 1.40114 
-1.83834 -5.42954 1.37651 
-1.83982 -5.43394 1.35327 
-1.84223 -5.44105 1.33064 
-1.8429 -5.44303 1.30669 
-1.83965 -5.43343 1.27996 
-1.83525 -5.42043 1.25251 
-1.82564 -5.39205 1.22167 
-1.81337 -5.35579 1.18932 
-1.80545 -5.33241 1.16007 
-1.80139 -5.32043 1.13343 
-1.79967 -5.31535 1.10832 
-1.79899 -5.31334 1.08387 
-1.79853 -5.31197 1.05953 
-1.79786 -5.31001 1.03508 
-1.79727 -5.30824 1.01066 
-1.79639 -5.30567 0.986082 
-1.7954 -5.30273 0.961447 
-1.79419 -5.29915 0.936707 
-1.79285 -5.2952 0.911918 
-1.79139 -5.29088 0.887086 
-1.78975 -5.28606 0.862193 
-1.78796 -5.28076 0.837253 
-1.7861 -5.27526 0.812314 
-1.78392 -5.26883 0.78727 
-1.78165 -5.26211 0.762229 
-1.77894 -5.2541 0.737054 
-1.77606 -5.2456 0.711871 
-1.77344 -5.23787 0.686853 
-1.77135 -5.2317 0.66209 
-1.76948 -5.22617 0.637449 
-1.76821 -5.22241 0.613055 
-1.76743 -5.22013 0.58885 
-1.76669 -5.21795 0.564666 
-1.76612 -5.21626 0.540541 
-1.76582 -5.21536 0.516501 
-1.76558 -5.21467 0.492478 
-1.76547 -5.21434 0.468485 
-1.76566 -5.21489 0.444561 
-1.7661 -5.21619 0.420683 
-1.76665 -5.21781 0.396811 
-1.7675 -5.22032 0.372978 
-1.76864 -5.2237 0.349175 
-1.76983 -5.22722 0.325342 
-1.77108 -5.2309 0.301479 
-1.77254 -5.23523 0.277612 
-1.77435 -5.24057 0.253748 
-1.77655 -5.24706 0.22988 
-1.77911 -5.25462 0.205991 
-1.78177 -5.26247 0.182037 
-1.78485 -5.27157 0.158046 
-1.78413 -5.26944 0.133682 
-1.78004 -5.25738 0.109129 
-1.77779 -5.25072 0.084773 
-1.77638 -5.24654 0.060505 
-1.77501 -5.24252 0.036276 
-1.77398 -5.23947 0.012085 
-1.77342 -5.23782 -0.012081 
-1.77303 -5.23666 -0.036235 
-1.77266 -5.23558 -0.060379 
-1.77257 -5.2353 -0.084524 
-1.77284 -5.23609 -0.108687 
-1.77323 -5.23726 -0.132865 
-1.77366 -5.23853 -0.157055 
-1.77412 -5.23989 -0.181256 
-1.77464 -5.24142 -0.205473 
-1.77492 -5.24224 -0.229669 
-1.77243 -5.2349 -0.253473 
-1.76737 -5.21993 -0.276801 
-1.76524 -5.21367 -0.300486 
-1.78638 -5.2761 -0.328384 
-1.74047 -5.14051 -0.343614 
-1.89483 -5.45915 1.46104 
-1.88475 -5.43009 1.42895 
-1.88077 -5.41863 1.40165 
-1.88007 -5.41663 1.37682 
-1.8818 -5.42161 1.35373 
-1.88492 -5.43059 1.33156 
-1.88539 -5.43194 1.30744 
-1.88127 -5.42008 1.28016 
-1.87645 -5.40618 1.25249 
-1.87185 -5.39293 1.22507 
-1.86081 -5.36112 1.19361 
-1.85171 -5.33491 1.16364 
-1.84718 -5.32186 1.1367 
-1.84513 -5.31596 1.11135 
-1.84431 -5.31361 1.08675 
-1.8438 -5.31212 1.06233 
-1.84304 -5.30995 1.03777 
-1.8426 -5.30866 1.01338 
-1.84172 -5.30614 0.98875 
-1.84073 -5.30327 0.964059 
-1.83949 -5.29972 0.939258 
-1.83815 -5.29584 0.914413 
-1.83666 -5.29156 0.88952 
-1.83504 -5.2869 0.864585 
-1.83319 -5.28156 0.83957 
-1.83127 -5.27602 0.814556 
-1.82908 -5.26972 0.789463 
-1.82677 -5.26305 0.764359 
-1.82404 -5.25519 0.739134 
-1.82108 -5.24667 0.713878 
-1.81837 -5.23886 0.68878 
-1.81618 -5.23256 0.66393 
-1.81429 -5.22709 0.639229 
-1.81337 -5.22445 0.614898 
-1.81427 -5.22705 0.591172 
-1.81749 -5.23634 0.568138 
-1.82402 -5.25515 0.545995 
-1.90979 -5.50223 -0.343354 
-1.77944 -5.1267 -0.343587 
-1.93251 -5.43425 1.43386 
-1.92771 -5.42075 1.40594 
-1.92695 -5.41862 1.38101 
-1.92877 -5.42372 1.35788 
-1.93279 -5.43504 1.33621 
-1.93746 -5.44816 1.31484 
-1.93471 -5.44044 1.2884 
-1.9271 -5.41904 1.25882 
-1.92128 -5.40266 1.23055 
-1.90834 -5.36629 1.19795 
-1.89809 -5.33747 1.16731 
-1.89306 -5.32332 1.14005 
-1.89067 -5.31659 1.11445 
-1.88971 -5.31389 1.08971 
-1.88907 -5.31209 1.06516 
-1.88857 -5.31069 1.04069 
-1.88801 -5.30912 1.01617 
-1.88711 -5.30659 0.991473 
-1.88611 -5.30378 0.966727 
-1.88488 -5.3003 0.941868 
-1.88352 -5.29649 0.916966 
-1.88202 -5.29226 0.892012 
-1.88041 -5.28775 0.867033 
-1.8785 -5.28237 0.84194 
-1.87652 -5.27681 0.816852 
-1.87432 -5.27062 0.791705 
-1.87196 -5.26399 0.766537 
-1.86922 -5.25627 0.74126 
-1.86618 -5.24773 0.715929 
-1.86338 -5.23986 0.69075 
-1.86109 -5.23343 0.665813 
-1.85911 -5.22784 0.641027 
-1.85805 -5.22485 0.616587 
-1.85882 -5.22704 0.59275 
-1.86197 -5.2359 0.569606 
-1.86846 -5.25414 0.547348 
-1.87809 -5.2812 0.525789 
-1.88388 -5.29749 0.502947 
-1.88318 -5.29553 0.478297 
-1.88252 -5.29366 0.453664 
-1.88189 -5.29189 0.429047 
-1.88129 -5.29021 0.404445 
-1.88072 -5.28862 0.379858 
-1.88019 -5.28712 0.355284 
-1.87969 -5.28571 0.330723 
-1.87922 -5.2844 0.306174 
-1.87879 -5.28317 0.281637 
-1.87838 -5.28202 0.257109 
-1.87812 -5.28129 0.232604 
-1.87826 -5.28169 0.208148 
-1.8786 -5.28266 0.183703 
-1.87944 -5.28502 0.159287 
-1.88485 -5.30024 0.135175 
-1.88958 -5.31354 0.110879 
-1.88943 -5.3131 0.086234 
-1.88973 -5.31396 0.061607 
-1.90499 -5.35685 -0.310372 
-1.89437 -5.32699 -0.333306 
-1.81802 -5.11229 -0.343536 
-1.95713 -5.37447 1.20305 
-1.9446 -5.34006 1.17106 
-1.93904 -5.32478 1.14347 
-1.93628 -5.31721 1.11761 
-1.93517 -5.31416 1.09274 
-1.93451 -5.31234 1.06811 
-1.9341 -5.31122 1.04362 
-1.9335 -5.30957 1.01903 
-1.93258 -5.30705 0.99426 
-1.93158 -5.3043 0.969453 
-1.93033 -5.30088 0.944536 
-1.92898 -5.29715 0.919579 
-1.92745 -5.29295 0.894558 
-1.92587 -5.28861 0.869535 
-1.92388 -5.28315 0.844357 
-1.92186 -5.27761 0.819201 
-1.91965 -5.27153 0.793999 
-1.91725 -5.26495 0.768764 
-1.91449 -5.25737 0.743434 
-1.91137 -5.24882 0.718026 
-1.90848 -5.24088 0.692766 
-1.9061 -5.23432 0.66774 
-1.90402 -5.22862 0.642868 
-1.9028 -5.22528 0.618316 
-1.90344 -5.22704 0.594364 
-1.90438 -5.22961 0.570472 
-1.90346 -5.22709 0.546013 
-1.90256 -5.22462 0.521572 
-1.90192 -5.22285 0.497211 
-1.90156 -5.22187 0.472928 
-1.90138 -5.22137 0.448687 
-1.90124 -5.22097 0.42445 
-1.90113 -5.22068 0.400217 
-1.90107 -5.22053 0.375988 
-1.90125 -5.22102 0.351798 
-1.90184 -5.22263 0.327666 
-1.90265 -5.22485 0.303549 
-1.9035 -5.22718 0.279411 
-1.9044 -5.22966 0.255253 
-1.90551 -5.23272 0.231093 
-1.90697 -5.23672 0.206937 
-1.90857 -5.24113 0.182755 
-1.90882 -5.24181 0.158415 
-1.90735 -5.23777 0.133945 
-1.90575 -5.23337 0.109503 
-1.90438 -5.22961 0.08511 
-1.90307 -5.22602 0.060752 
-1.90181 -5.22254 0.036428 
-1.90085 -5.21993 0.012137 
-1.90039 -5.21864 -0.012134 
-1.90011 -5.21788 -0.036395 
-1.89986 -5.21721 -0.06065 
-1.89971 -5.21677 -0.084901 
-1.89972 -5.21681 -0.109157 
-1.89985 -5.21717 -0.133418 
-1.90006 -5.21773 -0.157687 
-1.90036 -5.21858 -0.181969 
-1.90074 -5.21961 -0.206261 
-1.90123 -5.22096 -0.230574 
-1.90252 -5.22449 -0.255001 
-1.90366 -5.22764 -0.279435 
-1.90412 -5.22889 -0.303783 
-1.91532 -5.25965 -0.329989 
-1.85665 -5.09854 -0.343545 
-1.99124 -5.34269 1.17489 
-1.98512 -5.32626 1.14696 
-1.98198 -5.31784 1.12085 
-1.9807 -5.3144 1.09582 
-1.9802 -5.31307 1.07123 
-1.97968 -5.31167 1.04661 
-1.97907 -5.31003 1.02194 
-1.97814 -5.30753 0.997111 
-1.97744 -5.30567 0.972397 
-1.97653 -5.30322 0.947578 
-1.97561 -5.30075 0.922759 
-1.97438 -5.29746 0.897806 
-1.97277 -5.29313 0.872696 
-1.97107 -5.28858 0.847573 
-1.9691 -5.28329 0.822361 
-1.96648 -5.27625 0.796916 
-1.96415 -5.27001 0.77164 
-1.96127 -5.26228 0.746195 
-1.95752 -5.25222 0.720488 
-1.95407 -5.24296 0.694966 
-1.95145 -5.23592 0.669799 
-1.94927 -5.23008 0.644834 
-1.9473 -5.2248 0.619978 
-1.94605 -5.22144 0.595376 
-1.94485 -5.21822 0.57081 
-1.94383 -5.21548 0.546313 
-1.9431 -5.21354 0.521912 
-1.94254 -5.21202 0.497558 
-1.94208 -5.21079 0.473236 
-1.94188 -5.21025 0.448975 
-1.94188 -5.21026 0.424756 
-1.94194 -5.21041 0.400539 
-1.94225 -5.21125 0.376363 
-1.94285 -5.21285 0.352223 
-1.94348 -5.21455 0.328068 
-1.94432 -5.21679 0.303922 
-1.94543 -5.21978 0.27979 
-1.94668 -5.22312 0.255642 
-1.94805 -5.22682 0.231473 
-1.9497 -5.23123 0.207295 
-1.95157 -5.23625 0.183092 
-1.9518 -5.23687 0.158705 
-1.94994 -5.23187 0.134166 
-1.94795 -5.22654 0.109664 
-1.94625 -5.22197 0.085222 
-1.94467 -5.21775 0.060825 
-1.94338 -5.21428 0.036471 
-1.94232 -5.21143 0.01215 
-1.94143 -5.20903 -0.012145 
-1.9408 -5.20734 -0.036422 
-1.9403 -5.20602 -0.060688 
-1.94006 -5.20538 -0.084951 
-1.94011 -5.2055 -0.109223 
-1.94023 -5.20583 -0.133498 
-1.94039 -5.20626 -0.157778 
-1.94059 -5.20679 -0.182062 
-1.94083 -5.20742 -0.206351 
-1.94025 -5.20587 -0.230546 
-1.93787 -5.19948 -0.254485 
-1.93452 -5.19049 -0.27822 
-1.93384 -5.18868 -0.302285 
-1.95064 -5.23375 -0.329276 
-1.8949 -5.08421 -0.343531 
-2.04116 -5.35361 1.18062 
-2.03228 -5.3303 1.15108 
-2.02803 -5.31916 1.1243 
-2.02724 -5.31709 1.09948 
-2.02711 -5.31674 1.075 
-2.02704 -5.31656 1.05054 
-2.02838 -5.32009 1.02678 
-2.03044 -5.32549 1.00332 
-2.03376 -5.33419 0.980393 
-2.00064 -5.24733 0.67316 
-1.99455 -5.23136 0.646818 
-1.99235 -5.22558 0.621825 
-1.99111 -5.22234 0.597164 
-1.98992 -5.2192 0.572533 
-1.98885 -5.2164 0.547956 
-1.98805 -5.21431 0.523466 
-1.98742 -5.21266 0.499028 
-1.98692 -5.21133 0.474625 
-1.9867 -5.21077 0.450291 
-1.98672 -5.21081 0.426003 
-1.98677 -5.21095 0.401714 
-1.98707 -5.21174 0.377464 
-1.98769 -5.21335 0.353254 
-1.98837 -5.21515 0.329034 
-1.98939 -5.21781 0.304842 
-1.99083 -5.2216 0.28068 
-1.99241 -5.22574 0.256494 
-1.99434 -5.23081 0.232306 
-1.99675 -5.23711 0.208115 
-1.99935 -5.24395 0.18388 
-1.99994 -5.24547 0.159416 
-1.99776 -5.23978 0.134749 
-1.99535 -5.23344 0.11012 
-1.99329 -5.22804 0.085562 
-1.99128 -5.22279 0.061056 
-1.98953 -5.21817 0.036602 
-1.98811 -5.21445 0.012192 
-1.98702 -5.2116 -0.012185 
-1.98618 -5.2094 -0.03654 
-1.98561 -5.20789 -0.060882 
-1.98543 -5.20742 -0.085225 
-1.98547 -5.20755 -0.109575 
-1.98559 -5.20786 -0.133928 
-1.98575 -5.20827 -0.158286 
-1.98595 -5.20879 -0.182647 
-1.98618 -5.2094 -0.207014 
-1.98524 -5.20693 -0.231246 
-1.9825 -5.19975 -0.255218 
-1.97899 -5.19055 -0.279011 
-1.97832 -5.18879 -0.303146 
-1.99264 -5.22634 -0.329741 
-1.93323 -5.07052 -0.343576 
-2.08786 -5.35556 1.15987 
-2.08205 -5.34064 1.1321 
-2.08024 -5.336 1.10657 
-2.0813 -5.33872 1.08256 
-2.08555 -5.34962 1.06012 
-2.08612 -5.3511 1.03574 
-2.08445 -5.3468 1.01024 
-2.08276 -5.34248 0.984749 
-2.08112 -5.33827 0.959301 
-2.07952 -5.33417 0.933892 
-2.07801 -5.3303 0.908543 
-2.07675 -5.32704 0.883314 
-2.07558 -5.32405 0.858141 
-2.07491 -5.32234 0.83318 
-2.07619 -5.32562 0.808978 
-2.07719 -5.32819 0.784624 
-2.07598 -5.32508 0.759422 
-2.07482 -5.32209 0.734252 
-2.07368 -5.31918 0.709104 
-2.07255 -5.31627 0.683971 
-2.07146 -5.31348 0.658866 
-2.07043 -5.31085 0.633795 
-2.0695 -5.30845 0.608762 
-2.06862 -5.30621 0.583758 
-2.06897 -5.3071 0.559093 
-2.07124 -5.31292 0.534904 
-2.07229 -5.31562 0.510352 
-2.07151 -5.31361 0.485336 
-2.07077 -5.31172 0.460338 
-2.07008 -5.30995 0.435361 
-1.97115 -5.05619 -0.343593 
-2.13305 -5.35342 1.13814 
-2.13048 -5.34697 1.1121 
-2.12939 -5.34423 1.08686 
-2.12685 -5.33785 1.0609 
-2.12429 -5.33143 1.03497 
-2.12214 -5.32603 1.00927 
-2.12005 -5.3208 0.983633 
-2.11818 -5.31608 0.958119 
-2.11662 -5.31217 0.932773 
-2.11512 -5.30841 0.90747 
-2.11397 -5.30551 0.882328 
-2.11294 -5.30295 0.857251 
-2.11186 -5.30023 0.832156 
-2.11053 -5.2969 0.806978 
-2.10934 -5.2939 0.781865 
-2.10844 -5.29166 0.756873 
-2.10769 -5.28975 0.731933 
-2.10716 -5.28843 0.707076 
-2.10682 -5.28759 0.682279 
-2.10668 -5.28723 0.657538 
-2.10676 -5.28744 0.632855 
-2.107 -5.28805 0.608204 
-2.10752 -5.28933 0.58361 
-2.10665 -5.28716 0.558628 
-2.10362 -5.27956 0.533107 
-2.10106 -5.27313 0.50776 
-2.09929 -5.26868 0.482645 
-2.09827 -5.26613 0.457728 
-2.098 -5.26544 0.432979 
-2.00863 -5.04115 -0.343578 
